ply
format ascii 1.0
comment Created by Open3D
element vertex 1353
property double x
property double y
property double z
property uchar red
property uchar green
property uchar blue
end_header
1.05887 0.513798 -0.103315 255 0 0
0.538987 0.59647 -0.122239 255 0 0
-0.557867 -1.14387 0.0770049 255 0 0
0.502125 0.57561 -0.107251 255 0 0
1.24771 -0.151927 -0.101945 255 0 0
1.15038 0.504551 -0.125007 255 0 0
1.26199 -0.125999 -0.0668235 255 0 0
-0.0212084 -0.695945 1.33307 255 0 0
1.20637 -0.298503 -0.0484312 255 0 0
0.847382 0.106329 0.199903 255 0 0
-0.0856871 -1.14323 -0.212559 255 0 0
0.970061 0.661042 0.16651 255 0 0
0.511334 0.577399 -0.0848902 255 0 0
0.739606 -0.785198 2.07169 255 0 0
1.08414 0.532423 -0.126334 255 0 0
0.577878 0.237131 -0.229022 255 0 0
0.737678 -0.803537 2.05592 255 0 0
0.411813 -0.942417 1.59948 255 0 0
0.099233 -0.967292 1.11407 255 0 0
0.535734 0.578771 -0.140901 255 0 0
0.492163 0.595137 -0.119587 255 0 0
0.200663 -0.883148 1.19201 255 0 0
0.354767 -0.966664 1.39735 255 0 0
1.1271 0.52468 -0.0666376 255 0 0
-1.49971 -0.584383 0.231497 255 0 0
-0.921225 -0.646148 0.31179 255 0 0
0.510406 0.55924 -0.084941 255 0 0
1.2324 -0.0826679 -0.00909039 255 0 0
-1.22158 -0.682522 0.234711 255 0 0
1.22236 -0.0676768 0.029542 255 0 0
-0.0607321 -0.689504 1.49284 255 0 0
1.55636 -1.0647 1.92728 255 0 0
1.27174 -0.136517 -0.0664881 255 0 0
1.4054 -0.700196 2.59249 255 0 0
1.21987 -0.264804 -0.0676423 255 0 0
-1.30376 -0.652691 0.220447 255 0 0
-0.14562 -0.877642 -0.641375 255 0 0
0.507495 0.536781 -0.0898018 255 0 0
1.05351 0.50942 -0.119472 255 0 0
1.25754 -0.141751 -0.0877727 255 0 0
1.15082 0.571953 -0.0963092 255 0 0
-0.261032 -0.686694 1.59255 255 0 0
0.855843 0.297025 0.212386 255 0 0
-0.0811837 -0.942128 -0.386095 255 0 0
0.964071 -0.357726 -0.333155 255 0 0
1.23866 -1.02348 2.27198 255 0 0
-1.59965 -0.507872 0.317469 255 0 0
0.549563 0.573128 -0.11105 255 0 0
0.888108 -0.0716636 0.264919 255 0 0
0.577455 -0.586046 2.33188 255 0 0
0.472666 0.559618 -0.153451 255 0 0
0.488013 0.597957 -0.122894 255 0 0
-1.11543 -1.22174 0.87948 255 0 0
0.401089 -0.967707 1.55612 255 0 0
1.20414 -0.0653849 0.0329421 255 0 0
1.06461 0.502184 -0.125039 255 0 0
-0.877655 -0.676547 0.314638 255 0 0
1.14858 0.552857 -0.101504 255 0 0
-0.0552125 -1.04165 1.16063 255 0 0
0.0883806 -1.07795 1.12658 255 0 0
0.36177 -0.696028 2.79203 255 0 0
0.61957 -0.685741 2.41086 255 0 0
1.24094 -0.164082 -0.106853 255 0 0
0.538428 0.298109 -0.141851 255 0 0
-1.1388 -0.668327 0.273736 255 0 0
1.24025 -0.183024 -0.107735 255 0 0
1.21169 -0.282821 -0.0476186 255 0 0
-0.0975998 -0.96325 -0.387943 255 0 0
1.18337 -0.0627531 -0.0318606 255 0 0
0.496098 0.338744 -0.133073 255 0 0
1.20041 -0.0635792 -0.046391 255 0 0
-1.1994 -0.66591 0.249436 255 0 0
-1.03486 -0.652857 0.255906 255 0 0
0.51611 0.309247 -0.143724 255 0 0
0.882167 0.0967221 0.252765 255 0 0
1.12867 0.512471 -0.0842003 255 0 0
1.14747 0.545483 -0.11866 255 0 0
0.492676 0.574402 -0.120161 255 0 0
1.16406 -0.942973 2.53626 255 0 0
1.09614 0.48906 -0.0872576 255 0 0
1.22641 -0.458059 2.49235 255 0 0
-0.125229 -0.862143 -0.581944 255 0 0
0.842689 0.0567819 -0.372536 255 0 0
0.546619 0.556401 -0.104323 255 0 0
-1.72595 -0.0504807 0.283034 255 0 0
1.09569 0.497187 -0.121795 255 0 0
-1.42119 -0.463859 0.0918343 255 0 0
1.18386 -0.948261 2.54772 255 0 0
0.996304 0.723542 -0.17011 255 0 0
1.22337 -0.170618 -0.105448 255 0 0
0.980477 0.463509 -0.0867222 255 0 0
-1.73851 -0.180535 0.392262 255 0 0
0.70697 -0.723385 2.0672 255 0 0
0.835328 -0.00385898 0.229827 255 0 0
1.23481 -0.244164 -0.0886339 255 0 0
0.996095 0.468647 -0.0865141 255 0 0
0.335362 -0.967243 1.37394 255 0 0
-1.33985 -0.323166 0.311561 255 0 0
0.559445 -0.583138 2.33291 255 0 0
1.11368 0.650614 -0.0483344 255 0 0
0.54605 0.577532 -0.123221 255 0 0
-1.04129 -0.66736 0.233671 255 0 0
-1.06153 -1.06301 0.870279 255 0 0
0.508516 0.555221 -0.0913403 255 0 0
0.509743 0.540127 -0.0863998 255 0 0
1.55296 -1.17259 1.84732 255 0 0
0.508809 0.576398 -0.0944482 255 0 0
0.503736 0.556156 -0.107357 255 0 0
-1.59817 -0.512908 0.271443 255 0 0
1.25847 -0.102704 0.0130977 255 0 0
0.849668 0.219951 -0.373883 255 0 0
1.20733 -0.26034 -0.0701343 255 0 0
1.53619 -1.16554 1.86816 255 0 0
0.472255 0.571921 -0.153458 255 0 0
-0.935696 -0.698138 -0.102915 255 0 0
0.578361 -0.761804 1.81908 255 0 0
0.978004 0.473037 -0.107326 255 0 0
0.344534 -0.963159 1.38963 255 0 0
0.54098 0.297046 -0.13477 255 0 0
0.547478 0.577446 -0.106713 255 0 0
0.549319 0.569405 -0.118147 255 0 0
0.440376 -0.696524 2.692 255 0 0
-1.00146 -0.44399 -0.14629 255 0 0
1.31885 -0.951013 2.11647 255 0 0
0.42523 -0.69539 2.67117 255 0 0
1.07735 0.517145 -0.109119 255 0 0
1.20836 -0.263501 -0.0810815 255 0 0
0.519715 -0.696189 2.53465 255 0 0
0.554861 -0.691862 2.47152 255 0 0
1.13872 0.496605 -0.108552 255 0 0
1.2226 -0.9226 2.43865 255 0 0
-0.516079 -0.723078 0.247574 255 0 0
-0.897812 -0.651568 0.312693 255 0 0
1.07557 0.501092 -0.12062 255 0 0
0.538985 0.277257 -0.207285 255 0 0
-1.51254 -0.565398 0.257094 255 0 0
-0.0455636 -0.820632 -0.321995 255 0 0
0.823621 0.0578603 0.218877 255 0 0
1.13489 0.532555 -0.0728861 255 0 0
0.812619 0.264233 0.182669 255 0 0
0.940986 0.377661 -0.108839 255 0 0
0.943698 0.357525 -0.112226 255 0 0
0.941314 0.37273 -0.121367 255 0 0
-0.28076 -0.701063 1.57223 255 0 0
0.359659 -0.696165 2.81353 255 0 0
-1.15439 -0.999596 0.806331 255 0 0
0.998527 0.461448 -0.0899224 255 0 0
-1.75119 -0.174797 0.376667 255 0 0
0.960141 0.440521 -0.125987 255 0 0
-0.480492 -1.00306 1.51109 255 0 0
-1.06121 -1.00558 0.836652 255 0 0
-1.33039 -0.380334 0.31811 255 0 0
0.842251 -0.223012 0.255437 255 0 0
0.320799 -0.964477 1.43207 255 0 0
0.824086 0.277641 0.218645 255 0 0
-1.09929 -0.509613 -0.0826771 255 0 0
0.495136 0.331861 -0.145882 255 0 0
1.1427 0.555218 -0.0876592 255 0 0
-0.960791 -0.659882 0.333036 255 0 0
1.25912 -0.141355 -0.0676032 255 0 0
1.12338 0.622733 -0.045083 255 0 0
-1.01736 -0.646933 0.254055 255 0 0
1.09222 0.493205 -0.0754655 255 0 0
1.1028 0.481506 -0.0886948 255 0 0
1.06057 0.517017 -0.0869864 255 0 0
1.07975 0.498981 -0.0871223 255 0 0
1.11713 0.470034 -0.106999 255 0 0
1.08064 0.500659 -0.105483 255 0 0
1.10196 0.477145 -0.108257 255 0 0
1.11146 0.468451 -0.117358 255 0 0
1.15256 0.536313 -0.120562 255 0 0
1.13508 0.517791 -0.071916 255 0 0
-0.0815097 -1.00696 -0.408931 255 0 0
1.12518 0.537983 -0.0735334 255 0 0
1.1594 0.557869 -0.122482 255 0 0
1.13617 0.534139 -0.0880551 255 0 0
1.13567 0.517751 -0.0872234 255 0 0
1.1276 0.538919 -0.0881794 255 0 0
1.1333 0.500092 -0.0892618 255 0 0
1.14107 0.516726 -0.106398 255 0 0
1.13894 0.53735 -0.1065 255 0 0
-0.185514 -0.943208 1.28761 255 0 0
1.14558 0.513656 -0.120534 255 0 0
1.15923 0.576085 -0.108741 255 0 0
1.16277 0.575312 -0.121096 255 0 0
1.14879 0.546842 -0.12487 255 0 0
1.09236 0.5379 -0.125018 255 0 0
1.1513 0.536124 -0.112346 255 0 0
1.12049 0.635747 -0.0492813 255 0 0
1.10478 0.485859 -0.0760012 255 0 0
1.09257 0.491059 -0.107875 255 0 0
-0.379033 -0.998533 1.41933 255 0 0
1.09061 0.524055 -0.125389 255 0 0
1.208 -0.461319 2.45148 255 0 0
0.28661 -0.990086 1.31065 255 0 0
1.21619 -0.0809955 0.0482156 255 0 0
1.25691 -0.162416 -0.10849 255 0 0
1.26655 -0.481715 2.54217 255 0 0
-0.201587 -0.94198 1.294 255 0 0
-1.1497 -1.21657 0.946243 255 0 0
-0.260749 -0.699316 1.49244 255 0 0
0.505096 0.582484 -0.157756 255 0 0
-0.140936 -0.904016 -0.610395 255 0 0
-0.0931597 -0.995459 -0.422234 255 0 0
-0.0981424 -0.960787 -0.369573 255 0 0
-0.140873 -0.701829 1.57299 255 0 0
1.19328 -0.958643 2.46314 255 0 0
0.2515 -0.91951 1.26093 255 0 0
0.476598 -0.873589 1.6647 255 0 0
-0.71619 -0.863139 1.65779 255 0 0
0.832072 0.0568633 0.229919 255 0 0
1.17934 -0.0833252 -0.0310177 255 0 0
1.18493 -0.965391 2.53651 255 0 0
1.27882 -1.00121 2.07674 255 0 0
-1.33237 -0.359517 0.335834 255 0 0
-0.099752 -0.974525 -0.38447 255 0 0
1.20078 -0.928636 2.5687 255 0 0
1.55838 -1.08307 1.92506 255 0 0
0.322564 -0.984453 1.36605 255 0 0
1.25272 -0.470252 2.5063 255 0 0
1.25764 -0.164121 -0.0870047 255 0 0
1.23661 -0.162023 -0.0882235 255 0 0
1.25097 -0.180495 -0.10926 255 0 0
1.22585 -0.184023 -0.103517 255 0 0
-0.15871 -0.88442 -0.585424 255 0 0
0.502639 0.594304 -0.150654 255 0 0
1.27849 -0.122981 -0.0878229 255 0 0
0.315469 -1.00438 1.35618 255 0 0
0.504435 0.577622 -0.152272 255 0 0
1.54201 -1.17264 1.89459 255 0 0
1.2792 -0.128606 -0.0499791 255 0 0
-0.71667 -0.902388 1.65744 255 0 0
-0.520314 -1.14238 0.172303 255 0 0
1.28008 -0.124141 -0.0689645 255 0 0
1.15913 -0.944168 2.45084 255 0 0
-1.38059 -0.444025 0.0519187 255 0 0
-1.51199 -0.563842 0.209572 255 0 0
1.20779 -0.0723419 0.0190572 255 0 0
-0.997288 0.568357 0.707109 255 0 0
-0.711442 -0.915653 1.65536 255 0 0
0.479786 -0.696442 2.61216 255 0 0
-1.32236 -0.425731 0.0725151 255 0 0
-0.102051 -1.02288 1.22771 255 0 0
1.21585 -0.0828376 0.0322916 255 0 0
-0.378972 -1.0038 1.43231 255 0 0
0.826993 0.636124 -0.305957 255 0 0
-0.12113 -0.697021 1.41285 255 0 0
0.834499 0.0168006 0.23092 255 0 0
1.14542 0.572745 -0.0862158 255 0 0
1.12678 0.495315 -0.0846279 255 0 0
-1.21763 -0.668181 0.251015 255 0 0
1.15373 0.55656 -0.108823 255 0 0
1.39908 -0.670141 2.59464 255 0 0
0.990668 0.35847 0.176114 255 0 0
-1.28122 -0.445074 0.011617 255 0 0
-1.08138 -0.666829 0.231913 255 0 0
-0.481557 -1.00861 1.50084 255 0 0
1.21881 -0.424436 2.47439 255 0 0
-0.0958017 -1.14233 -0.244522 255 0 0
0.579717 -0.70293 2.45282 255 0 0
0.862992 0.237687 0.196567 255 0 0
-0.144348 -0.866469 -0.54941 255 0 0
-0.0965543 -1.00269 -0.386083 255 0 0
1.24498 -0.148203 -0.0851135 255 0 0
1.26237 -0.127356 -0.0862403 255 0 0
1.22237 -0.180954 -0.0873188 255 0 0
1.27117 -0.137206 -0.0879637 255 0 0
1.24601 -0.167719 -0.119152 255 0 0
-1.32357 -0.428642 0.0280548 255 0 0
0.957912 0.692441 -0.146643 255 0 0
1.30991 -0.577222 2.62998 255 0 0
-0.141801 -1.00967 1.25209 255 0 0
-0.952421 -0.63888 0.328742 255 0 0
1.47832 -1.16347 1.85117 255 0 0
-1.07516 -1.04406 0.85308 255 0 0
1.56997 -1.07622 1.91145 255 0 0
-0.280999 -0.700434 1.53271 255 0 0
-1.21831 -0.681136 0.252479 255 0 0
-1.33865 -0.395922 0.306862 255 0 0
-1.11715 -1.021 0.880064 255 0 0
0.583025 -0.0699864 -0.148586 255 0 0
-1.3821 -0.444898 0.0718435 255 0 0
-0.121502 -0.822333 -0.645667 255 0 0
-0.240875 -0.699379 1.4928 255 0 0
-0.600409 -0.989204 0.145547 255 0 0
-0.0805868 -1.01859 -0.367748 255 0 0
-0.160156 -0.882125 -0.609328 255 0 0
-1.4625 -0.623004 0.189707 255 0 0
1.29204 -0.121302 -0.0524003 255 0 0
-0.180126 -0.943333 1.27624 255 0 0
0.120193 -1.08354 1.13133 255 0 0
-0.101495 -1.14333 -0.227124 255 0 0
-1.13894 -0.667835 0.256204 255 0 0
-0.0948007 -0.881773 -0.348614 255 0 0
1.27141 -0.101132 -0.00104436 255 0 0
1.2384 -0.264268 -0.066738 255 0 0
0.0323619 -1.07598 1.14094 255 0 0
-0.164157 -0.894207 -0.554359 255 0 0
-1.41909 -0.466752 0.150438 255 0 0
-1.16182 -0.664442 0.251815 255 0 0
-0.23972 -0.50485 -0.670851 255 0 0
0.61917 -0.588856 2.32885 255 0 0
1.15245 -0.0839258 0.00535818 255 0 0
1.16169 -0.0632734 -0.000939954 255 0 0
1.15895 -0.0824604 0.000501359 255 0 0
0.817304 -0.202749 0.233429 255 0 0
-0.161076 -0.688986 1.5924 255 0 0
-1.33854 -0.3961 0.291654 255 0 0
-1.09384 -1.01854 0.873291 255 0 0
-0.160786 -0.702802 1.61285 255 0 0
0.206912 -0.898036 1.22306 255 0 0
-0.0208481 -0.68924 1.39255 255 0 0
-1.09783 -0.981138 0.833599 255 0 0
0.499531 -0.696119 2.55245 255 0 0
0.539226 -0.699226 2.53404 255 0 0
-1.06059 -1.18436 0.835054 255 0 0
0.366925 -0.956979 1.50613 255 0 0
-0.141963 -0.904456 -0.56725 255 0 0
1.19626 -0.0800847 -0.0452684 255 0 0
1.18676 -0.0881377 -0.0396637 255 0 0
1.21307 -0.0783024 -0.0565894 255 0 0
1.25385 -1.04405 2.27497 255 0 0
0.960751 -0.362888 -0.344843 255 0 0
-1.06156 -0.689651 -0.047215 255 0 0
-0.944237 -0.650123 0.292079 255 0 0
0.832892 0.117103 0.250803 255 0 0
0.772943 -0.819834 2.09464 255 0 0
1.18359 -0.0828127 0.0574463 255 0 0
1.22003 -0.064595 0.0122103 255 0 0
-0.0483034 -0.970668 -0.370441 255 0 0
1.21676 -0.0820957 0.0113842 255 0 0
1.2274 -0.0635445 -0.00127987 255 0 0
1.2345 -0.0639224 -0.00656504 255 0 0
0.359279 -0.688353 2.81212 255 0 0
-1.72964 -0.228031 0.388312 255 0 0
1.22237 -0.222901 -0.0860559 255 0 0
1.21975 -0.24319 -0.087676 255 0 0
1.22361 -0.203588 -0.105261 255 0 0
1.22046 -0.264305 -0.0875044 255 0 0
1.22484 -0.223609 -0.108589 255 0 0
1.23836 -0.275731 -0.0545977 255 0 0
1.25492 -0.984576 2.27157 255 0 0
1.23007 -0.0660585 0.00401408 255 0 0
1.23902 -0.203827 -0.0886261 255 0 0
1.23485 -0.223796 -0.088834 255 0 0
1.23941 -0.203446 -0.106873 255 0 0
1.23753 -0.222839 -0.107544 255 0 0
1.25066 -0.177608 -0.0878213 255 0 0
1.13912 -0.864666 2.41232 255 0 0
-1.10162 -1.01161 0.848134 255 0 0
-0.140107 -0.961366 1.25158 255 0 0
-0.800951 -0.0274816 -0.306049 255 0 0
0.0999444 -0.998927 1.09266 255 0 0
0.298061 -0.686004 2.93106 255 0 0
-0.818305 -0.0282242 -0.32796 255 0 0
0.83354 -0.0432907 0.227415 255 0 0
0.319294 -0.686998 2.87308 255 0 0
-0.00096186 -0.689017 1.35258 255 0 0
-0.418166 -1.00215 1.45817 255 0 0
-1.12613 -0.674273 0.249469 255 0 0
-0.122264 -0.959207 -0.412994 255 0 0
-1.50109 -0.563968 0.253521 255 0 0
-0.121439 -0.865349 -0.629168 255 0 0
0.511107 -0.673193 2.57542 255 0 0
-0.859763 -0.659092 0.313951 255 0 0
0.122152 -1.00557 1.12709 255 0 0
-1.32885 -0.382483 0.328447 255 0 0
0.891757 0.0509996 0.255395 255 0 0
-0.0671831 -0.956062 -0.406951 255 0 0
-0.200944 -0.703018 1.63275 255 0 0
-1.00098 -0.661715 0.252037 255 0 0
-0.280965 -0.685236 1.53313 255 0 0
-1.12339 -1.20245 0.890931 255 0 0
0.744447 -0.801148 2.06865 255 0 0
-1.07956 -1.22362 0.872317 255 0 0
-0.160606 -0.900758 -0.623422 255 0 0
1.23482 -0.949268 2.5779 255 0 0
-0.0410155 -0.689648 1.47276 255 0 0
0.870845 -0.116646 0.278057 255 0 0
-0.685755 -0.923321 1.66614 255 0 0
-0.185558 -0.545944 -0.633391 255 0 0
-0.320576 -0.981348 1.38777 255 0 0
-1.16042 -0.67437 0.273407 255 0 0
-0.145563 -0.861991 -0.642282 255 0 0
1.2193 -0.962233 2.25304 255 0 0
0.281406 -0.963474 1.31234 255 0 0
-0.0623325 -1.02261 1.18974 255 0 0
0.595849 -0.595152 2.33245 255 0 0
-0.221819 -0.599749 2.23402 255 0 0
-1.11102 -1.18047 0.902938 255 0 0
0.837851 0.0169149 -0.386281 255 0 0
-0.0657677 -1.02272 1.20729 255 0 0
-0.181032 -0.697782 1.45269 255 0 0
0.433555 -0.921484 1.65215 255 0 0
0.581205 -0.597205 2.33215 255 0 0
0.11786 -1.02396 1.09582 255 0 0
0.636281 -0.680693 1.98811 255 0 0
-0.140861 -0.697169 1.4326 255 0 0
-1.30209 -0.443963 0.0113564 255 0 0
-0.501345 -1.00373 1.51962 255 0 0
-1.69952 0.0498679 0.273543 255 0 0
0.890874 -0.0581662 0.259294 255 0 0
-1.08025 -1.02242 0.834517 255 0 0
0.89306 -0.0417542 0.253366 255 0 0
0.837351 0.356121 0.211636 255 0 0
-1.49614 -0.565009 0.200009 255 0 0
-0.867021 -0.674762 0.304632 255 0 0
-1.14576 -0.673995 0.271039 255 0 0
0.825455 0.296731 0.220868 255 0 0
0.459177 -0.688805 2.65241 255 0 0
-0.0970917 -1.02504 1.21478 255 0 0
0.11973 -1.0416 1.11446 255 0 0
0.819158 -0.0633453 0.233606 255 0 0
0.538365 -0.0630327 -0.189046 255 0 0
-1.50369 -0.581518 0.216423 255 0 0
-0.960766 -0.64942 0.293217 255 0 0
-0.921268 -0.659294 0.312436 255 0 0
-1.1423 -1.10265 0.813967 255 0 0
-0.0986376 -0.945241 -0.387699 255 0 0
-1.72777 -0.0223984 0.29005 255 0 0
-0.999718 -0.443305 -0.125896 255 0 0
-1.26154 -0.44472 0.0315084 255 0 0
0.137538 -0.8837 1.11568 255 0 0
-0.0967027 -0.981291 -0.371221 255 0 0
1.36368 -0.647591 2.63714 255 0 0
-0.093594 -1.0161 -0.359189 255 0 0
0.957379 0.695877 0.113496 255 0 0
-0.954327 -0.636573 0.320525 255 0 0
0.844211 0.131366 0.202538 255 0 0
-0.161488 -0.884284 -0.561832 255 0 0
-1.14136 -0.674636 0.253362 255 0 0
-1.59372 0.381921 0.671791 255 0 0
1.56346 -1.1264 1.91913 255 0 0
-1.08601 -0.984318 0.83245 255 0 0
-0.923091 -0.703569 -0.10486 255 0 0
-1.14136 -1.20284 0.910886 255 0 0
0.737637 -0.823051 2.05107 255 0 0
1.36028 -0.700578 2.61205 255 0 0
-0.068871 -0.999903 -0.426023 255 0 0
1.28211 -1.02208 2.10834 255 0 0
-1.12629 -1.16743 0.801858 255 0 0
-0.983638 -0.671278 -0.133921 255 0 0
0.299539 -0.686692 2.91178 255 0 0
-0.178654 -0.877889 -0.55666 255 0 0
-1.41106 -0.575135 0.223596 255 0 0
-1.33547 -0.369597 0.34306 255 0 0
1.2756 -0.96617 2.21143 255 0 0
-0.981348 -0.422416 -0.130966 255 0 0
-0.960269 -0.659669 0.312094 255 0 0
-0.969015 -0.404247 -0.135944 255 0 0
-1.35632 -0.310978 0.279257 255 0 0
-0.063287 -0.946255 -0.387599 255 0 0
1.1602 -0.938829 2.43999 255 0 0
-1.18041 -0.664795 0.267669 255 0 0
1.17916 -0.965455 2.46865 255 0 0
-0.101984 -1.14488 -0.210111 255 0 0
-1.10145 -1.22407 0.872309 255 0 0
-1.14292 -1.22177 0.928283 255 0 0
-0.0963034 -1.00267 -0.407823 255 0 0
0.500034 -0.696035 2.57218 255 0 0
-0.981519 -0.687422 -0.108987 255 0 0
-1.0616 -0.667773 0.232589 255 0 0
0.858074 0.155764 0.198408 255 0 0
0.953846 0.699204 0.0963626 255 0 0
-1.11511 -1.24417 0.880027 255 0 0
-1.06057 -0.695717 -0.0274516 255 0 0
1.33961 -0.750161 2.73282 255 0 0
-1.14226 -1.18669 0.912098 255 0 0
1.30276 -0.97182 2.11228 255 0 0
1.2385 -0.983573 2.27125 255 0 0
0.280345 -0.944022 1.31157 255 0 0
0.299529 -0.69877 2.96764 255 0 0
-0.921183 -0.658686 0.2927 255 0 0
1.52315 -1.1645 1.85519 255 0 0
0.829487 0.0808536 0.246587 255 0 0
1.23258 -0.440047 2.48957 255 0 0
-1.62559 -0.467381 0.302051 255 0 0
1.42644 -0.716254 2.58842 255 0 0
-0.936876 -0.364538 -0.161499 255 0 0
1.01194 0.721257 -0.169964 255 0 0
-0.220913 -0.698938 1.47252 255 0 0
-1.13976 -1.18243 0.892717 255 0 0
0.11845 -1.06559 1.11614 255 0 0
1.30426 -0.577971 2.63183 255 0 0
0.479471 -0.685789 2.57532 255 0 0
-1.08441 -1.00123 0.832344 255 0 0
0.620648 -0.635205 2.40477 255 0 0
-0.0645225 -0.94078 -0.40603 255 0 0
-0.160956 -0.702123 1.59271 255 0 0
0.533487 -0.0650701 -0.211931 255 0 0
-0.117889 -0.965187 -0.419782 255 0 0
0.533028 -0.82083 1.74981 255 0 0
-1.16177 -0.986921 0.793541 255 0 0
-1.5305 -0.505917 0.161733 255 0 0
-1.14312 -1.0138 0.827535 255 0 0
-1.71778 -0.00631118 0.277266 255 0 0
0.362072 -0.517831 2.25562 255 0 0
-0.99813 -0.423381 -0.125392 255 0 0
-1.3323 -0.394726 0.278551 255 0 0
1.61038 -0.87573 1.94647 255 0 0
-0.117166 -1.14384 -0.223504 255 0 0
-1.25792 -0.444347 0.0126111 255 0 0
-0.621973 -0.983467 1.61249 255 0 0
-0.0764172 -1.03886 1.17543 255 0 0
-0.960131 -0.659068 0.293067 255 0 0
-0.303122 -0.603295 2.21344 255 0 0
0.118987 -1.00443 1.11506 255 0 0
-1.07359 -1.00151 0.849253 255 0 0
0.0593733 -0.696301 1.37266 255 0 0
1.21816 -0.941117 2.44914 255 0 0
0.0630208 -1.07847 1.10208 255 0 0
-1.08223 -1.20435 0.833576 255 0 0
-0.941263 -0.659727 0.31257 255 0 0
-1.21937 -0.670518 0.235874 255 0 0
-0.962642 -0.685657 -0.107798 255 0 0
0.420557 -0.941487 1.60465 255 0 0
-0.299202 -0.59711 2.22841 255 0 0
-1.17013 -0.607433 0.230412 255 0 0
-1.11463 -1.20197 0.878082 255 0 0
-0.0607294 -0.700443 1.51251 255 0 0
0.560882 -0.699288 2.49158 255 0 0
-0.933804 -0.38241 -0.122779 255 0 0
-0.935795 -0.388847 -0.116433 255 0 0
-0.121902 -0.889379 -0.613388 255 0 0
-0.923217 -0.362785 -0.171775 255 0 0
-0.960338 -0.383212 -0.145031 255 0 0
-0.98155 -0.403265 -0.130728 255 0 0
-1.02128 -0.464232 -0.1289 255 0 0
0.866585 0.424457 0.198689 255 0 0
1.2015 -0.963018 2.2521 255 0 0
-0.182959 -0.879688 -0.640828 255 0 0
1.2618 -1.02864 2.09693 255 0 0
0.0595158 -0.695759 1.35266 255 0 0
-0.841143 -0.661882 0.313142 255 0 0
-0.960648 -0.64866 0.272855 255 0 0
-0.880525 -0.659808 0.312864 255 0 0
0.498447 -0.564303 2.30672 255 0 0
-0.960496 -0.65839 0.272937 255 0 0
-0.980278 -0.658828 0.312831 255 0 0
-1.11978 -0.66965 0.253576 255 0 0
-1.36258 -0.42914 0.0496245 255 0 0
-1.18045 -0.664912 0.252995 255 0 0
-1.12095 -0.666921 0.273904 255 0 0
-0.980963 -0.659316 0.332282 255 0 0
-1.15972 -0.665264 0.273216 255 0 0
-1.40061 -0.447239 0.0881829 255 0 0
1.53704 -1.15754 1.83988 255 0 0
-0.138632 -0.88771 -0.605387 255 0 0
-1.3174 -0.42267 0.0536773 255 0 0
0.499096 -0.67258 2.57968 255 0 0
-1.41228 -0.471797 0.140434 255 0 0
-1.39807 -0.486247 0.172214 255 0 0
-0.960507 -0.384116 -0.16978 255 0 0
-0.978938 -0.392942 -0.146741 255 0 0
-0.979533 -0.402405 -0.141213 255 0 0
-0.138676 -0.882341 -0.550301 255 0 0
-0.860676 -0.65185 0.311475 255 0 0
-0.880176 -0.652215 0.312591 255 0 0
-1.15951 -0.675852 0.25152 255 0 0
-1.18033 -0.67766 0.251738 255 0 0
-1.20072 -0.679523 0.252082 255 0 0
0.501811 -0.672638 2.58312 255 0 0
-1.44542 -0.626071 0.172503 255 0 0
-1.49635 -0.587755 0.192819 255 0 0
-1.53786 -0.50124 0.169836 255 0 0
-1.54122 -0.484152 0.169608 255 0 0
-1.14118 -1.20225 0.894341 255 0 0
-0.12429 -0.881693 -0.569105 255 0 0
-1.46523 -0.482583 0.13451 255 0 0
-1.46063 -0.463356 0.152418 255 0 0
-1.46285 -0.444526 0.152099 255 0 0
-0.0827527 -1.00396 -0.365087 255 0 0
0.476564 -0.882813 1.65641 255 0 0
-1.17261 -0.615539 0.229502 255 0 0
-0.0809072 -0.690357 1.57263 255 0 0
-1.47692 -0.478354 0.136389 255 0 0
0.440465 -0.687886 2.63314 255 0 0
-1.41599 -0.632578 0.203774 255 0 0
-0.137948 -0.882107 -0.564443 255 0 0
-0.157937 -0.902753 -0.565574 255 0 0
-0.172594 -0.880937 -0.560031 255 0 0
-0.920655 -0.639588 0.293812 255 0 0
-0.938348 -0.641521 0.316973 255 0 0
-1.19091 -0.664945 0.26347 255 0 0
0.852244 0.298028 0.227845 255 0 0
-0.180758 -0.689095 1.63296 255 0 0
0.578618 -0.587404 2.35196 255 0 0
-0.0970258 -0.984516 -0.427056 255 0 0
-0.0985428 -0.984475 -0.413073 255 0 0
-0.100139 -0.959292 -0.405734 255 0 0
-0.103512 -0.948941 -0.371246 255 0 0
-1.08489 -0.964215 0.832432 255 0 0
-0.132287 -0.810779 -0.656412 255 0 0
-0.123029 -0.881592 -0.622066 255 0 0
-0.140556 -0.865297 -0.631624 255 0 0
-0.140428 -0.882968 -0.62517 255 0 0
-0.135356 -0.899099 -0.620592 255 0 0
-0.160852 -0.883384 -0.629634 255 0 0
-0.160197 -0.902203 -0.609324 255 0 0
-0.178008 -0.883407 -0.626845 255 0 0
-0.176837 -0.900479 -0.621037 255 0 0
-0.0704944 -1.12775 -0.246463 255 0 0
-0.0390043 -0.827484 -0.314869 255 0 0
-0.0599491 -0.824635 -0.331009 255 0 0
-0.0865966 -0.841961 -0.341683 255 0 0
1.29954 -0.801404 2.77407 255 0 0
0.500799 -0.695905 2.53173 255 0 0
-0.0643216 -0.921017 -0.38663 255 0 0
-0.0771265 -0.929279 -0.393025 255 0 0
-0.0797807 -0.947157 -0.372054 255 0 0
-0.0986478 -0.941559 -0.408516 255 0 0
-0.0790179 -0.944585 -0.40884 255 0 0
-0.0623734 -1.10035 -0.291355 255 0 0
-0.120902 -0.879511 -0.580214 255 0 0
-0.0643436 -0.959523 -0.386054 255 0 0
-0.127293 -0.866816 -0.570733 255 0 0
-0.0607266 -0.984287 -0.366859 255 0 0
-0.222075 -0.5048 -0.651133 255 0 0
-0.0813355 -0.940563 -0.425865 255 0 0
-0.0829574 -0.956793 -0.402078 255 0 0
-0.0787033 -0.962759 -0.387504 255 0 0
-0.0809348 -0.982367 -0.371734 255 0 0
-0.243783 -0.484623 -0.652606 255 0 0
-0.258398 -0.47931 -0.662704 255 0 0
-0.0956904 -1.00418 -0.366205 255 0 0
-0.29347 -0.275999 -0.602492 255 0 0
-0.0657228 -0.871911 -0.363641 255 0 0
-0.0676846 -0.875931 -0.360904 255 0 0
1.33902 -0.762558 2.73567 255 0 0
-0.220777 -0.52279 -0.667324 255 0 0
-0.141249 -0.904268 -0.590167 255 0 0
-0.159987 -0.901418 -0.587181 255 0 0
-0.0978065 -0.87109 -0.353767 255 0 0
-0.261326 -0.503467 -0.672979 255 0 0
-0.177534 -0.884714 -0.609654 255 0 0
-0.174691 -0.884669 -0.596012 255 0 0
-0.0642215 -0.999365 -0.40711 255 0 0
-0.0826719 -1.00027 -0.426946 255 0 0
-0.146207 -0.887763 -0.593571 255 0 0
-0.0801245 -1.00714 -0.387449 255 0 0
-0.0786993 -1.01475 -0.379241 255 0 0
0.225942 -0.904317 1.24707 255 0 0
1.22329 -0.962139 2.28727 255 0 0
0.53758 0.556016 -0.210337 255 0 0
1.5409 -1.01587 1.95431 255 0 0
0.708192 -0.773854 2.07413 255 0 0
0.579785 0.237437 -0.2095 255 0 0
-1.14637 -1.20633 0.943611 255 0 0
-1.10014 -1.20535 0.891172 255 0 0
-1.36106 -0.443472 0.0320076 255 0 0
-1.42149 -0.484056 0.0919353 255 0 0
-1.43914 -0.503516 0.11152 255 0 0
0.569813 -0.082473 -0.235842 255 0 0
0.732986 -0.785163 2.05617 255 0 0
0.0994861 -1.04394 1.12885 255 0 0
-1.08053 -0.688223 -0.0463167 255 0 0
-1.06223 -0.691737 -0.0305448 255 0 0
-1.45359 -0.502482 0.125062 255 0 0
-1.42206 -0.637584 0.173978 255 0 0
-1.41853 -0.641053 0.192668 255 0 0
-1.38112 -0.645919 0.209715 255 0 0
0.720882 -0.782249 2.05163 255 0 0
0.477866 -0.673206 2.57926 255 0 0
-1.5295 -0.540642 0.175004 255 0 0
-1.52027 -0.562908 0.194124 255 0 0
-1.48825 -0.582871 0.239788 255 0 0
0.121511 -1.08479 1.1499 255 0 0
0.338724 -0.68725 2.8302 255 0 0
1.37566 -0.698972 2.61088 255 0 0
-0.0842622 -1.02182 1.22605 255 0 0
-0.02096 -0.695586 1.31223 255 0 0
-1.50473 -0.565532 0.274213 255 0 0
0.763556 -0.820433 2.08754 255 0 0
-0.140709 -0.703129 1.61283 255 0 0
0.496858 -0.686971 2.59225 255 0 0
0.0800513 -0.922168 1.10894 255 0 0
-1.33659 -0.32006 0.292155 255 0 0
-1.34147 -0.307956 0.295588 255 0 0
0.39957 -0.688914 2.77324 255 0 0
-1.14146 -1.06349 0.813638 255 0 0
0.459362 -0.688907 2.63228 255 0 0
0.836288 0.0968214 0.233535 255 0 0
-1.32768 -0.430217 0.0874628 255 0 0
0.460214 -0.884593 1.68718 255 0 0
1.29521 -1.02354 2.09819 255 0 0
0.594005 0.198222 -0.233721 255 0 0
1.25796 -0.921293 2.62988 255 0 0
-1.33351 -0.384686 0.27687 255 0 0
-1.33913 -0.363941 0.290531 255 0 0
-1.34008 -0.382258 0.291315 255 0 0
-1.33293 -0.337122 0.296008 255 0 0
-0.299675 -0.963431 1.35896 255 0 0
-1.3357 -0.344743 0.312333 255 0 0
-1.33923 -0.364928 0.310711 255 0 0
-1.3408 -0.384933 0.311026 255 0 0
-1.33058 -0.361773 0.318519 255 0 0
-1.32867 -0.366637 0.329052 255 0 0
-1.33585 -0.382261 0.334873 255 0 0
0.496032 -0.843393 1.70769 255 0 0
0.925078 0.692075 0.145164 255 0 0
-0.380239 -0.984015 1.39231 255 0 0
0.297356 -0.698732 2.95132 255 0 0
1.00311 0.722688 -0.1457 255 0 0
-0.201284 -0.697843 1.45259 255 0 0
-0.0808597 -0.690067 1.55245 255 0 0
-0.020847 -0.697368 1.41308 255 0 0
-1.6878 -0.201638 0.446643 255 0 0
-1.12339 -1.2035 0.905625 255 0 0
0.573329 -0.0632452 -0.210785 255 0 0
0.498577 -0.682502 2.55229 255 0 0
1.29126 -0.97649 2.07727 255 0 0
0.855322 0.277445 0.228204 255 0 0
0.1864 -0.88357 1.18789 255 0 0
-1.00694 0.57983 0.654181 255 0 0
1.3187 -0.84132 2.75242 255 0 0
0.822122 0.0368446 0.234133 255 0 0
0.843359 -0.203745 0.257468 255 0 0
0.106017 -1.06666 1.14311 255 0 0
-0.0758528 -1.00612 1.21405 255 0 0
1.50298 -1.16346 1.87256 255 0 0
1.18743 -0.500913 2.4388 255 0 0
0.50012 -0.686778 2.5332 255 0 0
0.460908 -0.697029 2.6326 255 0 0
-0.40141 -1.00082 1.43708 255 0 0
-1.14177 -1.04194 0.812951 255 0 0
1.27538 -0.974921 2.20548 255 0 0
0.835069 0.655873 -0.369905 255 0 0
-1.58069 0.383364 0.690148 255 0 0
-1.34643 -0.429553 0.0477883 255 0 0
-0.260875 -0.685285 1.49286 255 0 0
0.961206 0.676052 0.151094 255 0 0
0.30453 -0.98304 1.34349 255 0 0
-1.07894 -1.20365 0.873159 255 0 0
-1.57992 0.395198 0.688397 255 0 0
1.49942 -1.18335 1.87085 255 0 0
0.175658 -0.882696 1.15429 255 0 0
0.839428 0.61631 -0.407702 255 0 0
1.26055 -0.963508 2.06868 255 0 0
-1.72363 -0.025632 0.272773 255 0 0
-1.12019 -1.02229 0.817249 255 0 0
-1.14108 -1.0043 0.813569 255 0 0
-1.14101 -1.00272 0.829214 255 0 0
-1.11973 -1.00627 0.877922 255 0 0
-0.518865 -0.704507 0.233833 255 0 0
-0.518667 -0.722578 0.234904 255 0 0
-1.70106 0.0354191 0.274208 255 0 0
-1.70181 0.0360237 0.292365 255 0 0
0.119964 -1.03731 1.09748 255 0 0
1.81827 -0.718071 2.27378 255 0 0
0.299832 -0.69729 2.93695 255 0 0
-0.196299 -0.507814 2.25252 255 0 0
-0.517801 -0.684123 0.236177 255 0 0
-0.505302 -0.700126 0.238406 255 0 0
-0.517477 -0.664942 0.240525 255 0 0
1.24343 -0.979291 2.30627 255 0 0
1.28045 -0.527803 2.61062 255 0 0
-0.0607807 -0.698586 1.45268 255 0 0
-1.74321 -0.183382 0.372252 255 0 0
1.3294 -0.740857 2.69459 255 0 0
0.0191795 -0.688967 1.31276 255 0 0
0.0390544 -0.688751 1.2927 255 0 0
-1.70024 0.0487916 0.287019 255 0 0
0.818533 0.11329 -0.394163 255 0 0
-0.801861 -0.00732192 -0.349161 255 0 0
0.818117 0.357161 -0.425612 255 0 0
1.36613 -0.663711 2.63224 255 0 0
-1.74667 -0.151147 0.357845 255 0 0
-1.74804 -0.167238 0.356543 255 0 0
-1.74541 -0.163915 0.374141 255 0 0
-1.74824 -0.167669 0.341541 255 0 0
-1.72671 -0.24457 0.377895 255 0 0
-1.7394 -0.201773 0.391816 255 0 0
0.579316 -0.701406 2.47163 255 0 0
0.171505 -0.885179 1.14234 255 0 0
-1.75398 -0.179085 0.3403 255 0 0
-1.73174 -0.2378 0.373597 255 0 0
0.822973 0.0364281 0.217103 255 0 0
-1.1446 -1.20557 0.93249 255 0 0
-1.09984 -1.20255 0.87148 255 0 0
0.509633 0.309615 -0.176571 255 0 0
-1.14026 -1.2248 0.894042 255 0 0
-0.120818 -0.696711 1.39293 255 0 0
1.19514 -0.963345 2.53437 255 0 0
-1.0806 -1.20365 0.852237 255 0 0
-1.09945 -1.22282 0.856086 255 0 0
-1.12372 -1.22151 0.891482 255 0 0
0.152364 -0.881554 1.11971 255 0 0
-1.07759 -1.02362 0.874331 255 0 0
-1.09683 -1.00196 0.877047 255 0 0
0.734027 -0.828127 2.0372 255 0 0
-1.06026 -1.02299 0.851519 255 0 0
-1.06123 -1.04199 0.851823 255 0 0
-1.07934 -1.04356 0.876111 255 0 0
-1.09951 -1.22503 0.887745 255 0 0
-1.09921 -1.24297 0.888071 255 0 0
-1.08197 -1.06292 0.886712 255 0 0
-1.14283 -1.17141 0.927322 255 0 0
-1.14169 -1.18367 0.92985 255 0 0
-1.08397 -1.19961 0.884573 255 0 0
-1.10361 -1.06347 0.891367 255 0 0
-1.10242 -1.00084 0.831594 255 0 0
0.802542 -0.183781 0.237881 255 0 0
-1.06182 -1.02437 0.837368 255 0 0
-1.08391 -1.21956 0.884264 255 0 0
0.811654 -0.125142 0.246459 255 0 0
-1.06378 -1.20253 0.853415 255 0 0
-1.06942 -1.20238 0.867288 255 0 0
-1.11562 -1.19589 0.811786 255 0 0
-1.1425 -1.02256 0.810529 255 0 0
-1.14141 -1.08181 0.813759 255 0 0
-1.11613 -1.20404 0.822786 255 0 0
-1.08029 -0.942651 0.83485 255 0 0
-1.08148 -1.18173 0.814632 255 0 0
-1.1537 -0.982116 0.777547 255 0 0
-1.14485 -1.00505 0.793887 255 0 0
0.707011 -0.822101 2.02584 255 0 0
-1.11892 -1.18445 0.801941 255 0 0
0.31799 -0.964201 1.35328 255 0 0
-1.18478 -0.964043 0.776377 255 0 0
-1.04754 -1.03608 0.83838 255 0 0
0.336258 -0.965124 1.45475 255 0 0
-0.240654 -0.685057 1.47239 255 0 0
0.305854 -0.961847 1.34696 255 0 0
-0.035387 -1.06091 1.15583 255 0 0
0.563003 -0.699847 2.4732 255 0 0
0.719915 -0.82081 2.03093 255 0 0
-0.636195 -0.97893 1.59843 255 0 0
-1.48047 -0.571022 0.24397 255 0 0
1.17412 -0.436793 2.49718 255 0 0
0.537204 0.277315 -0.193494 255 0 0
1.22898 -0.440137 2.47 255 0 0
1.24624 -0.925012 2.61667 255 0 0
0.593174 0.178067 -0.232195 255 0 0
1.51557 -1.17872 1.83311 255 0 0
0.181132 -0.883388 1.17021 255 0 0
0.850662 -0.16044 0.274693 255 0 0
0.882427 0.116627 0.253331 255 0 0
0.635492 -0.587879 2.31031 255 0 0
1.49287 -1.13988 1.81548 255 0 0
-0.121071 -0.690189 1.61238 255 0 0
0.759046 -0.824523 2.07171 255 0 0
1.23402 -0.442421 2.47748 255 0 0
1.23604 -0.462841 2.49284 255 0 0
1.16413 -0.98444 2.47157 255 0 0
0.715651 -0.783509 2.03442 255 0 0
1.25252 -0.988227 2.25962 255 0 0
0.538265 -0.683778 2.51628 255 0 0
0.582925 -0.568862 2.32324 255 0 0
0.100683 -1.08175 1.11569 255 0 0
0.100689 -1.06356 1.12846 255 0 0
1.46008 -1.12019 1.81585 255 0 0
0.952874 0.705308 0.079965 255 0 0
0.318114 -0.981307 1.35515 255 0 0
0.0985902 -0.922766 1.10669 255 0 0
0.319837 -0.694668 2.87453 255 0 0
-0.654154 -0.962495 1.61385 255 0 0
-0.337029 -0.982372 1.39423 255 0 0
-0.0610303 -0.698967 1.47256 255 0 0
-0.72041 -0.843542 1.67244 255 0 0
-0.720179 -0.863504 1.67354 255 0 0
-0.700166 -0.88292 1.67255 255 0 0
-0.701901 -0.902975 1.67254 255 0 0
-0.48309 -0.715701 2.03346 255 0 0
-0.579991 -0.982814 1.5864 255 0 0
1.2763 -0.981978 2.0728 255 0 0
1.56309 -1.10477 1.91496 255 0 0
-0.699262 -0.922551 1.65448 255 0 0
-0.69635 -0.941535 1.6531 255 0 0
-0.679296 -0.94319 1.65372 255 0 0
-0.682129 -0.964072 1.65262 255 0 0
-0.661885 -0.96278 1.63451 255 0 0
0.0735681 -1.09388 1.10664 255 0 0
-0.260832 -0.68641 1.61265 255 0 0
-0.678112 -0.942916 1.63083 255 0 0
-0.618547 -0.985162 1.59277 255 0 0
0.340112 -0.695911 2.81494 255 0 0
-0.280434 -0.700825 1.55278 255 0 0
-0.220737 -0.702838 1.63298 255 0 0
-0.180948 -0.703056 1.63285 255 0 0
-0.679303 -0.962168 1.63744 255 0 0
-0.663319 -0.982251 1.63675 255 0 0
-0.638678 -0.981256 1.61708 255 0 0
-0.601347 -0.984507 1.59514 255 0 0
-0.543047 -1.00372 1.55356 255 0 0
-0.520526 -1.0033 1.53817 255 0 0
-0.260933 -0.699895 1.51279 255 0 0
-0.200915 -0.698674 1.47247 255 0 0
-0.120479 -0.702933 1.6127 255 0 0
-0.100838 -0.701626 1.57273 255 0 0
-0.100899 -0.702621 1.59257 255 0 0
0.747464 -0.825107 2.06858 255 0 0
-0.654035 -0.981739 1.62017 255 0 0
-0.502316 -1.00298 1.5298 255 0 0
-0.423145 -1.00313 1.4721 255 0 0
-0.181026 -0.697265 1.43265 255 0 0
-0.160791 -0.696703 1.41314 255 0 0
-0.160914 -0.697074 1.43267 255 0 0
-0.140804 -0.687159 1.41205 255 0 0
-0.141153 -0.696906 1.41297 255 0 0
-0.000899394 -0.689344 1.39259 255 0 0
-0.120869 -0.687647 1.41256 255 0 0
-0.120983 -0.697165 1.43283 255 0 0
-0.0609106 -0.699781 1.49262 255 0 0
-0.0808423 -0.701369 1.57261 255 0 0
0.55952 0.556861 -0.24648 255 0 0
1.59453 -0.845689 1.96737 255 0 0
-0.100916 -0.696713 1.39293 255 0 0
-0.0609727 -0.696296 1.3732 255 0 0
-0.0409489 -0.698072 1.43286 255 0 0
-0.0406974 -0.698592 1.45262 255 0 0
1.22126 -1.00344 2.27192 255 0 0
-0.0411752 -0.699219 1.4728 255 0 0
-0.322766 -0.58696 2.21466 255 0 0
-0.0408801 -0.695859 1.3325 255 0 0
-0.0408956 -0.696072 1.35284 255 0 0
-0.000990627 -0.696037 1.35312 255 0 0
-0.320694 -0.600572 2.21074 255 0 0
0.0190869 -0.696905 1.39276 255 0 0
-0.716789 -0.886025 1.6564 255 0 0
-0.0808033 -0.688529 1.3723 255 0 0
-0.0609001 -0.688822 1.35259 255 0 0
-0.0409086 -0.688998 1.33273 255 0 0
-0.0409548 -0.688862 1.35253 255 0 0
-0.0208239 -0.689116 1.33241 255 0 0
-0.000844808 -0.689203 1.31267 255 0 0
-0.000478232 -0.695924 1.33285 255 0 0
-0.115212 -1.02786 1.21941 255 0 0
1.25914 -0.916127 2.59338 255 0 0
-0.000768513 -0.69583 1.31273 255 0 0
0.848756 0.158494 -0.371964 255 0 0
-0.200635 -0.516813 2.253 255 0 0
0.511402 -0.686754 2.5263 255 0 0
-0.183224 -0.518024 2.25206 255 0 0
-0.353297 -0.995507 1.391 255 0 0
0.311488 -0.974517 1.41676 255 0 0
-0.331416 -0.978369 1.37698 255 0 0
-0.279971 -0.962765 1.3534 255 0 0
-0.163791 -0.943209 1.27057 255 0 0
0.405534 -0.955965 1.58989 255 0 0
1.38028 -0.684155 2.63209 255 0 0
-0.564931 -0.997482 1.55983 255 0 0
-0.215703 -0.942732 1.29817 255 0 0
-0.159634 -0.968178 1.25285 255 0 0
-0.400899 -1.00284 1.45143 255 0 0
-0.124369 -1.01969 1.24565 255 0 0
-0.118498 -1.02594 1.23657 255 0 0
-0.100394 -1.0119 1.23056 255 0 0
-0.081354 -1.02291 1.21281 255 0 0
-0.085785 -1.01176 1.22495 255 0 0
-0.0792557 -1.02345 1.19295 255 0 0
-0.0794258 -1.02473 1.17687 255 0 0
-0.0201341 -1.06225 1.1493 255 0 0
0.191435 -0.877309 1.16062 255 0 0
0.193653 -0.882418 1.17475 255 0 0
0.211374 -0.884399 1.19863 255 0 0
0.238113 -0.902402 1.23272 255 0 0
-0.140753 -0.689733 1.61311 255 0 0
-0.663024 -0.942901 1.64578 255 0 0
-0.66322 -0.96422 1.64626 255 0 0
-0.64119 -0.964368 1.62946 255 0 0
-0.64264 -0.984243 1.62978 255 0 0
0.0988978 -0.982963 1.11112 255 0 0
-0.120916 -0.687604 1.39259 255 0 0
0.119253 -1.02447 1.11315 255 0 0
-0.100966 -0.687986 1.3926 255 0 0
0.137945 -1.03823 1.11412 255 0 0
0.123462 -0.987773 1.12442 255 0 0
0.137327 -1.02531 1.11557 255 0 0
0.140284 -1.04287 1.13268 255 0 0
-0.0609048 -0.688601 1.37243 255 0 0
0.25686 -0.925331 1.27499 255 0 0
0.271643 -0.941518 1.2969 255 0 0
0.0431544 -1.07485 1.11043 255 0 0
0.0789249 -1.06297 1.11202 255 0 0
0.0775863 -1.08375 1.10218 255 0 0
0.0798798 -1.08135 1.11346 255 0 0
0.0979297 -1.06408 1.11688 255 0 0
0.106396 -1.09729 1.11501 255 0 0
0.102493 -1.08004 1.12735 255 0 0
0.118157 -1.08304 1.11626 255 0 0
0.117866 -1.0627 1.13176 255 0 0
0.11927 -1.04451 1.13356 255 0 0
0.157808 -0.883727 1.13388 255 0 0
0.0624274 -1.08047 1.10959 255 0 0
0.0987627 -0.944204 1.11031 255 0 0
0.119212 -1.02367 1.12978 255 0 0
0.143303 -0.882916 1.12868 255 0 0
-0.340439 -0.982156 1.40834 255 0 0
-0.0408282 -0.688775 1.41236 255 0 0
-0.0208616 -0.688991 1.41276 255 0 0
0.163075 -0.883169 1.14979 255 0 0
0.0392192 -0.689243 1.3725 255 0 0
0.219886 -0.902172 1.23143 255 0 0
-0.604016 -0.981311 1.60501 255 0 0
-0.386259 -1.00439 1.44439 255 0 0
0.0986233 -1.0429 1.11393 255 0 0
0.0993999 -0.917093 1.10203 255 0 0
0.133151 -1.06317 1.12064 255 0 0
0.263488 -0.989344 1.29151 255 0 0
0.274424 -0.95971 1.29909 255 0 0
0.591866 -0.722884 1.84529 255 0 0
0.855736 0.136919 0.213175 255 0 0
-0.057994 -1.043 1.17363 255 0 0
-0.0468492 -1.05548 1.16435 255 0 0
0.113888 -0.991579 1.10171 255 0 0
-0.330325 -0.988695 1.40425 255 0 0
-0.284727 -0.962942 1.3663 255 0 0
-0.0609648 -0.688801 1.43257 255 0 0
-0.0407799 -0.689018 1.43238 255 0 0
-0.0604474 -0.689004 1.45259 255 0 0
-0.0406764 -0.689246 1.45259 255 0 0
0.896799 0.0369864 0.253493 255 0 0
0.299224 -0.687778 2.97137 255 0 0
-0.686165 -0.945458 1.66584 255 0 0
-0.150281 -0.947808 1.2638 255 0 0
-0.150065 -0.958923 1.26427 255 0 0
-0.0608638 -0.689196 1.4727 255 0 0
0.287223 -0.975637 1.32307 255 0 0
-0.26114 -0.685254 1.51268 255 0 0
-0.240942 -0.685553 1.49247 255 0 0
-0.22096 -0.685476 1.47291 255 0 0
-0.200879 -0.685944 1.45269 255 0 0
-0.180892 -0.686004 1.43269 255 0 0
-0.180943 -0.686247 1.45263 255 0 0
-0.160943 -0.686464 1.43249 255 0 0
-0.0809283 -0.690013 1.53268 255 0 0
-0.0609274 -0.689833 1.51229 255 0 0
-0.0610262 -0.690193 1.53222 255 0 0
-0.280837 -0.685758 1.55292 255 0 0
0.10752 -1.09987 1.13925 255 0 0
0.10793 -1.08729 1.14637 255 0 0
0.432197 -0.950813 1.59804 255 0 0
-0.280864 -0.685469 1.57265 255 0 0
0.100177 -0.903463 1.10839 255 0 0
0.273822 -0.986755 1.29726 255 0 0
0.292877 -0.978285 1.31622 255 0 0
0.291282 -0.961447 1.31723 255 0 0
0.302138 -0.961581 1.33523 255 0 0
0.33159 -0.983266 1.35817 255 0 0
0.339894 -0.982972 1.37284 255 0 0
0.347062 -0.976764 1.38575 255 0 0
0.363102 -0.962704 1.40635 255 0 0
1.23194 -0.424993 2.47566 255 0 0
-0.0604371 -1.04145 1.18885 255 0 0
-0.0471611 -1.03747 1.18827 255 0 0
-0.220907 -0.687964 1.63268 255 0 0
-0.200623 -0.688407 1.632 255 0 0
-0.160795 -0.689306 1.61202 255 0 0
-0.160764 -0.689704 1.63209 255 0 0
-0.101039 -0.690017 1.57239 255 0 0
-0.100948 -0.690291 1.5925 255 0 0
1.54332 -1.18545 1.89214 255 0 0
0.840446 0.0968973 0.214081 255 0 0
0.244815 -0.922061 1.26938 255 0 0
1.18075 -1.00293 2.49429 255 0 0
-0.14273 -0.978597 1.23115 255 0 0
-0.0927305 -1.01874 1.20253 255 0 0
0.756796 -0.802278 2.07778 255 0 0
-0.2858 -0.605931 2.22087 255 0 0
-0.279882 -0.601116 2.23098 255 0 0
-0.262314 -0.598185 2.23406 255 0 0
-0.196415 -0.94567 1.2787 255 0 0
-0.138032 -0.987453 1.21853 255 0 0
-0.138319 -0.967401 1.23644 255 0 0
-0.121202 -0.982715 1.21244 255 0 0
-0.125809 -0.997411 1.20484 255 0 0
-0.117173 -1.00347 1.1979 255 0 0
-0.125159 -0.974288 1.22306 255 0 0
-0.114046 -0.992508 1.20059 255 0 0
-0.0989623 -1.00085 1.19063 255 0 0
-0.0559836 -1.0567 1.16121 255 0 0
0.178547 -0.416418 2.238 255 0 0
-0.270371 -0.588718 2.24258 255 0 0
0.267918 -0.936628 1.30289 255 0 0
0.337137 -0.504829 2.25237 255 0 0
0.820183 -0.0238193 0.23497 255 0 0
0.42014 -0.543098 2.27056 255 0 0
1.53622 -1.18764 1.84266 255 0 0
1.25795 -0.903103 2.59203 255 0 0
1.43986 -0.670176 2.57196 255 0 0
1.24003 -0.941363 2.30552 255 0 0
1.57169 -1.09728 1.91385 255 0 0
1.24348 -0.941422 2.54802 255 0 0
0.318899 -0.687266 2.99167 255 0 0
0.319395 -0.687502 2.9342 255 0 0
0.318468 -0.687589 2.9128 255 0 0
0.37854 -0.68815 2.77304 255 0 0
0.479253 -0.686935 2.59195 255 0 0
0.520471 -0.698107 2.55346 255 0 0
1.53847 -1.18276 1.85095 255 0 0
0.317421 -0.695912 2.91043 255 0 0
1.16108 -0.988977 2.49674 255 0 0
0.420055 -0.689225 2.73243 255 0 0
0.358756 -0.688011 2.79384 255 0 0
0.517013 -0.682438 2.55196 255 0 0
0.544768 -0.685435 2.52681 255 0 0
1.22202 -1.02471 2.27191 255 0 0
0.599459 -0.708112 2.432 255 0 0
0.47124 -0.893649 1.6456 255 0 0
0.617738 -0.695489 2.41199 255 0 0
0.640091 -0.690592 2.39919 255 0 0
0.537241 -0.697524 2.51292 255 0 0
1.22083 -0.963522 2.27224 255 0 0
1.33967 -0.783044 2.75352 255 0 0
0.440188 -0.688814 2.69519 255 0 0
1.56921 -1.12759 1.88841 255 0 0
0.836682 0.134619 -0.390465 255 0 0
1.32016 -0.70527 2.67885 255 0 0
0.437818 -0.696833 2.65587 255 0 0
0.439252 -0.689246 2.65215 255 0 0
0.459288 -0.689567 2.61312 255 0 0
0.499083 -0.684194 2.57433 255 0 0
0.320727 -0.696001 2.89049 255 0 0
0.422725 -0.695497 2.71191 255 0 0
0.96192 -0.348512 -0.333423 255 0 0
0.857749 0.17629 0.213523 255 0 0
0.442197 -0.696327 2.63045 255 0 0
0.458662 -0.696256 2.61165 255 0 0
0.461048 -0.695341 2.59349 255 0 0
0.459994 -0.695462 2.57573 255 0 0
0.83974 0.196379 0.210961 255 0 0
0.581978 -0.722806 1.85322 255 0 0
1.2361 -0.919486 2.57466 255 0 0
0.55282 -0.0633022 -0.19284 255 0 0
1.36382 -0.678705 2.62892 255 0 0
1.18214 -0.963888 2.45138 255 0 0
0.441667 -0.696346 2.67605 255 0 0
1.38279 -0.694307 2.64413 255 0 0
0.505382 -0.823724 1.73881 255 0 0
0.938134 -0.363077 -0.429198 255 0 0
0.718942 -0.76392 2.07255 255 0 0
1.1832 -0.499752 2.4454 255 0 0
0.337957 -0.695499 2.82995 255 0 0
0.840384 0.476788 -0.406881 255 0 0
1.25297 -0.922245 2.54003 255 0 0
1.33443 -0.723324 2.69252 255 0 0
1.35904 -0.667096 2.61548 255 0 0
0.98724 0.725324 -0.144359 255 0 0
1.572 -1.14813 1.89752 255 0 0
1.53178 -1.17393 1.91676 255 0 0
0.955257 -0.362496 -0.386233 255 0 0
1.25393 -1.01245 2.25974 255 0 0
0.519424 -0.57669 2.31584 255 0 0
0.859727 0.456649 0.193011 255 0 0
1.25171 -0.98167 2.30275 255 0 0
0.858123 0.536627 0.172565 255 0 0
0.463619 -0.86606 1.69109 255 0 0
0.338073 -0.687047 2.84894 255 0 0
0.802568 -0.124372 0.237702 255 0 0
1.20511 -0.962988 2.26791 255 0 0
0.852173 0.157024 0.229379 255 0 0
0.29968 -0.686072 2.95098 255 0 0
0.319417 -0.687664 2.8939 255 0 0
0.378667 -0.68829 2.7918 255 0 0
0.399634 -0.688492 2.7541 255 0 0
0.479455 -0.694704 2.59146 255 0 0
0.479651 -0.695529 2.57396 255 0 0
1.37898 -0.681726 2.64616 255 0 0
1.3801 -0.698644 2.63057 255 0 0
1.42001 -0.701202 2.59125 255 0 0
0.65852 -0.604098 2.29363 255 0 0
0.556088 -0.693115 2.48892 255 0 0
0.66055 -0.705427 2.37742 255 0 0
1.38103 -0.681086 2.61087 255 0 0
1.42219 -0.671017 2.59388 255 0 0
1.42132 -0.681688 2.5926 255 0 0
1.3741 -0.672718 2.61506 255 0 0
0.49821 -0.578513 2.29798 255 0 0
0.539376 -0.595975 2.31195 255 0 0
1.29599 -0.965332 2.23725 255 0 0
1.2802 -1.0249 2.09129 255 0 0
1.29785 -1.00536 2.09409 255 0 0
0.482656 -0.671015 2.58415 255 0 0
0.495991 -0.671698 2.55692 255 0 0
0.512298 -0.67247 2.55613 255 0 0
1.32293 -0.723769 2.69717 255 0 0
1.25409 -0.92146 2.54944 255 0 0
1.20038 -0.942505 2.45158 255 0 0
1.19767 -0.960322 2.44863 255 0 0
1.19613 -0.980874 2.4475 255 0 0
1.2205 -0.407495 2.46804 255 0 0
1.23926 -0.925497 2.30585 255 0 0
1.23945 -0.96443 2.29355 255 0 0
1.26413 -0.965069 2.2562 255 0 0
1.27936 -0.963356 2.2478 255 0 0
1.27945 -0.965765 2.23809 255 0 0
1.26686 -0.96785 2.21225 255 0 0
1.27553 -1.02132 2.07318 255 0 0
1.27805 -1.00442 2.09117 255 0 0
0.491735 -0.861062 1.66299 255 0 0
0.5207 -0.56908 2.30987 255 0 0
0.540653 -0.581542 2.33429 255 0 0
0.541266 -0.581256 2.31312 255 0 0
0.599892 -0.58662 2.33226 255 0 0
1.18025 -0.984679 2.53335 255 0 0
1.17299 -0.997313 2.51766 255 0 0
1.16772 -0.999991 2.50933 255 0 0
1.193 -0.981962 2.52796 255 0 0
1.1801 -0.988192 2.51375 255 0 0
1.18396 -0.958208 2.50525 255 0 0
1.18177 -0.965542 2.49361 255 0 0
1.17974 -0.983435 2.49238 255 0 0
1.2332 -0.456879 2.47746 255 0 0
1.2357 -0.982234 2.25489 255 0 0
1.26271 -0.958978 2.30346 255 0 0
1.25286 -0.960211 2.05432 255 0 0
1.52104 -1.18586 1.86619 255 0 0
0.817745 0.195985 -0.409006 255 0 0
0.278406 -0.698689 2.92996 255 0 0
0.280748 -0.697386 2.91301 255 0 0
0.299344 -0.69622 2.91576 255 0 0
0.297494 -0.695895 2.89176 255 0 0
0.339782 -0.695031 2.85095 255 0 0
0.558398 -0.0623957 -0.205224 255 0 0
0.379224 -0.69709 2.79001 255 0 0
0.380403 -0.69502 2.77232 255 0 0
0.399499 -0.695528 2.75264 255 0 0
0.400009 -0.694683 2.73106 255 0 0
0.419193 -0.695106 2.73049 255 0 0
1.29982 -0.710313 2.68094 255 0 0
1.31744 -0.723214 2.67186 255 0 0
1.30013 -0.981603 2.09336 255 0 0
0.53467 -0.59405 2.32481 255 0 0
0.599395 -0.596457 2.31285 255 0 0
1.18956 -0.49061 2.44507 255 0 0
1.19656 -0.91641 2.5857 255 0 0
1.17878 -0.984846 2.45113 255 0 0
1.21468 -0.953841 2.44684 255 0 0
1.23909 -1.00272 2.29061 255 0 0
0.850388 0.226603 -0.377555 255 0 0
1.18111 -0.524129 2.43098 255 0 0
1.22105 -0.982595 2.27123 255 0 0
1.23899 -1.0431 2.27347 255 0 0
1.23699 -1.0023 2.25448 255 0 0
1.23674 -1.02781 2.256 255 0 0
1.25343 -1.02495 2.26086 255 0 0
1.25368 -1.04484 2.25927 255 0 0
1.23745 -0.963572 2.25543 255 0 0
1.31603 -0.740296 2.73149 255 0 0
1.19581 -0.941778 2.55554 255 0 0
0.578248 -0.745477 1.83508 255 0 0
1.18471 -0.94465 2.45476 255 0 0
1.56151 -1.08396 1.9154 255 0 0
1.53959 -1.18429 1.86958 255 0 0
1.51673 -1.16233 1.83157 255 0 0
0.461492 -0.672512 2.60907 255 0 0
1.32598 -0.762744 2.75181 255 0 0
1.33502 -0.763731 2.75474 255 0 0
1.17309 -0.981555 2.4666 255 0 0
1.23696 -0.962864 2.27186 255 0 0
1.2387 -1.00436 2.27226 255 0 0
1.25284 -1.02718 2.27187 255 0 0
1.253 -1.0037 2.27166 255 0 0
1.25609 -0.962506 2.27124 255 0 0
1.28237 -0.705018 2.69607 255 0 0
0.516188 -0.822754 1.73184 255 0 0
1.21618 -0.439613 2.452 255 0 0
1.21963 -1.02248 2.2547 255 0 0
1.29816 -0.962726 2.09502 255 0 0
0.424967 -0.923373 1.63063 255 0 0
1.56354 -1.14872 1.89162 255 0 0
1.56306 -1.16308 1.89466 255 0 0
1.5386 -1.16396 1.85064 255 0 0
1.51843 -1.18547 1.85841 255 0 0
0.822747 0.115192 0.220063 255 0 0
1.82093 -0.71616 2.25415 255 0 0
1.26226 -0.961491 2.08546 255 0 0
1.47826 -1.14244 1.81818 255 0 0
1.1988 -0.939874 2.5671 255 0 0
1.20979 -0.933489 2.56357 255 0 0
1.16584 -0.925547 2.44194 255 0 0
1.24265 -0.965718 2.30787 255 0 0
1.30481 -0.978877 2.11127 255 0 0
1.61515 -0.844665 1.95126 255 0 0
0.400575 -0.939115 1.6062 255 0 0
0.402174 -0.948721 1.59426 255 0 0
0.384041 -0.96206 1.55025 255 0 0
1.2357 -0.93718 2.6121 255 0 0
1.21592 -0.463471 2.45705 255 0 0
1.49717 -1.16189 1.85325 255 0 0
1.50067 -1.16285 1.83455 255 0 0
1.26296 -0.918279 2.61939 255 0 0
1.25594 -0.911872 2.57967 255 0 0
1.25278 -0.942054 2.53875 255 0 0
1.20777 -0.481133 2.54272 255 0 0
0.493186 -0.863633 1.65461 255 0 0
1.22454 -0.432231 2.49035 255 0 0
1.81696 -0.71697 2.20858 255 0 0
1.24031 -0.986156 2.29189 255 0 0
1.28242 -0.964768 2.08708 255 0 0
0.514788 -0.839762 1.70989 255 0 0
0.49798 -0.845149 1.6949 255 0 0
0.731306 -0.770276 2.05599 255 0 0
0.327887 -0.965547 1.44588 255 0 0
0.717858 -0.802073 2.0355 255 0 0
0.717826 -0.745537 2.05388 255 0 0
0.717511 -0.765154 2.05411 255 0 0
0.437275 -0.946743 1.60633 255 0 0
0.4097 -0.967312 1.56349 255 0 0
0.724729 -0.803053 2.04946 255 0 0
0.344701 -0.962581 1.49298 255 0 0
0.485891 -0.863869 1.70059 255 0 0
0.72552 -0.827508 2.047 255 0 0
0.725349 -0.840127 2.04499 255 0 0
1.22538 -0.446719 2.48944 255 0 0
1.49784 -1.18214 1.8528 255 0 0
1.55108 -1.18037 1.84566 255 0 0
0.490373 -0.862499 1.70038 255 0 0
0.46395 -0.87594 1.66705 255 0 0
0.732088 -0.74523 2.06149 255 0 0
0.434699 -0.902196 1.65381 255 0 0
0.427602 -0.922405 1.64337 255 0 0
0.445306 -0.922559 1.66844 255 0 0
0.721471 -0.779683 2.06998 255 0 0
0.556392 -0.783665 1.79929 255 0 0
0.749537 -0.809724 2.05107 255 0 0
0.771632 -0.82205 2.07668 255 0 0
1.25622 -0.965737 2.29152 255 0 0
1.25403 -0.983005 2.28975 255 0 0
0.401979 -0.956496 1.58148 255 0 0
1.19238 -0.990687 2.52237 255 0 0
1.20788 -0.984822 2.26483 255 0 0
0.839151 0.0572306 0.213122 255 0 0
0.703772 -0.762219 2.05005 255 0 0
1.25612 -0.999312 2.28555 255 0 0
0.627327 -0.664034 1.93951 255 0 0
0.746555 -0.811481 2.08492 255 0 0
1.51079 -1.19789 1.86393 255 0 0
0.767257 -0.826184 2.10936 255 0 0
1.61679 -0.830043 1.94509 255 0 0
0.549003 -0.78231 1.80741 255 0 0
1.36631 -0.697189 2.62638 255 0 0
0.706362 -0.766716 2.06418 255 0 0
1.2057 -0.404973 2.46628 255 0 0
1.59922 -0.881544 1.94665 255 0 0
1.59441 -0.900487 1.94764 255 0 0
0.70645 -0.735434 2.06338 255 0 0
1.51813 -1.16229 1.86779 255 0 0
1.52883 -1.16688 1.91635 255 0 0
1.54016 -1.16159 1.91133 255 0 0
1.20329 -0.449053 2.44729 255 0 0
1.46541 -1.15613 1.86583 255 0 0
0.605755 -0.642876 2.37667 255 0 0
0.824897 0.0904018 -0.37441 255 0 0
0.869937 0.255759 0.205245 255 0 0
0.860093 0.177588 0.196644 255 0 0
0.811411 -0.162426 0.245167 255 0 0
0.857186 0.560217 -0.412319 255 0 0
0.860275 0.19779 0.197554 255 0 0
0.851905 0.197025 0.228076 255 0 0
0.979876 0.656164 -0.165885 255 0 0
1.243 -0.948244 2.08613 255 0 0
1.48192 -1.16711 1.871 255 0 0
