ply
format ascii 1.0
comment Created by Open3D
element vertex 1193
property double x
property double y
property double z
property uchar red
property uchar green
property uchar blue
end_header
1.04603 0.693082 -0.0671217 217 216 225
0.691479 0.497938 -0.0915781 209 209 216
0.600792 0.371967 -0.126433 175 177 176
0.869316 0.578596 -0.115905 242 243 245
0.714603 0.552758 -0.127665 246 246 248
0.878438 0.612974 -0.122458 248 249 250
0.578993 0.930927 -0.0878141 198 190 193
0.693357 0.970555 -0.0871321 198 191 192
0.855639 0.650023 -0.107392 219 219 227
0.560427 1.03402 -0.0480916 190 181 182
0.477787 0.551242 -0.0879186 187 187 196
0.680675 0.472625 -0.126109 213 213 219
0.477427 0.532078 -0.0899024 205 204 213
0.638944 1.00932 -0.0143571 193 183 184
0.636275 0.412428 -0.127905 194 193 196
1.02534 0.616671 -0.107021 226 226 233
0.543774 0.531001 -0.106878 214 214 224
0.858485 0.530924 -0.124942 214 214 224
0.996667 0.67128 -0.0463581 212 211 217
0.895192 0.631495 -0.120967 239 240 245
0.485832 0.468626 -0.108752 217 218 228
0.894233 0.433435 -0.094878 179 180 183
0.649128 0.567128 -0.0919133 212 212 222
0.738654 0.531483 -0.121904 230 230 239
0.467203 0.550268 -0.112161 193 193 202
1.02936 0.717651 -0.0740441 215 215 222
0.541391 0.963538 -0.0847028 193 186 186
0.522679 0.43176 -0.123513 213 213 223
0.472111 0.513968 -0.102677 209 209 219
0.842462 0.490592 -0.126241 209 209 214
0.926451 0.578863 -0.104753 220 220 228
0.782548 0.570856 -0.0879008 215 215 223
0.473274 0.531173 -0.104241 207 205 214
0.921296 0.477342 -0.131545 216 216 216
0.622371 0.931278 -0.107988 200 193 199
1.01839 0.66751 -0.110907 243 244 248
0.561103 0.987816 -0.107525 197 189 193
0.700454 0.611044 -0.068687 208 208 214
0.618194 1.00933 -0.0464683 191 184 185
0.539953 0.931782 -0.125248 200 192 195
0.473106 0.549939 -0.101997 193 193 202
0.600918 0.333953 -0.128601 164 171 162
0.473084 0.570114 -0.102724 189 189 199
0.559879 0.988631 -0.0869107 195 187 190
0.467651 0.532271 -0.113995 206 204 214
0.660863 0.571247 -0.126033 222 222 232
0.580194 0.972416 -0.10686 198 190 195
0.680221 0.950738 -0.0481368 195 188 191
0.841338 0.531491 -0.0866648 206 206 215
0.866956 0.579239 -0.0619002 209 209 219
0.722057 0.571697 -0.127012 237 237 244
1.07831 0.690425 -0.0475588 212 212 219
0.778958 0.612533 -0.0543327 209 210 216
0.600386 0.914889 0.0107025 196 188 193
0.661481 0.33158 -0.125673 166 173 162
0.822729 0.532715 -0.0714129 206 205 210
0.620855 0.911486 -0.0473231 196 190 193
0.597096 0.985958 -0.0469834 196 188 192
0.565674 0.501309 -0.13688 244 246 246
0.559138 0.392788 -0.126275 198 197 202
0.873116 0.44457 -0.106189 183 184 188
0.647817 0.573022 -0.128982 221 220 225
0.936984 0.471226 -0.123619 192 192 194
0.700483 0.591424 -0.126076 222 222 229
0.740145 0.574387 -0.0945782 215 215 223
0.918651 0.532476 -0.120128 212 211 218
0.67138 0.943289 -0.0610738 195 188 191
0.659742 0.411389 -0.126378 192 192 195
0.604791 0.373417 -0.11414 176 177 178
0.890917 0.434411 -0.124659 176 178 179
0.604428 0.411466 -0.108407 195 193 200
0.688699 0.630283 -0.108718 206 206 214
0.938504 0.550466 -0.0867735 206 205 210
0.615388 1.02243 -0.0163791 193 185 186
0.867133 0.589772 -0.123713 249 249 249
0.51928 0.412074 -0.14261 237 237 240
0.99245 0.689324 -0.0495763 213 212 217
0.609976 0.463002 -0.0901081 204 204 213
0.767853 0.50964 -0.122813 217 217 223
0.638979 0.910224 -0.107658 200 193 198
0.620864 0.911552 -0.0674169 196 191 194
0.72203 0.632156 -0.125864 215 214 218
0.620726 0.929832 -0.124758 202 194 198
0.779892 0.611333 -0.08776 215 215 222
0.806129 0.610774 -0.124618 232 232 239
0.562071 0.936618 -0.0284542 195 187 191
0.927724 0.514041 -0.0675976 196 193 200
0.536037 0.53107 -0.0883397 209 209 218
0.622009 0.431503 -0.128698 205 205 211
0.832762 0.571517 -0.120935 243 244 245
0.818717 0.649691 -0.106626 216 215 225
0.959952 0.60599 -0.120502 241 242 246
0.879116 0.611683 -0.0673303 213 213 220
1.08943 0.639865 -0.0882597 218 218 225
0.659944 0.371495 -0.138366 184 188 185
0.820919 0.550929 -0.107435 222 222 230
1.10003 0.67039 -0.0677547 215 215 222
0.493888 0.429518 -0.106153 208 208 219
0.616002 0.94831 -0.0869973 199 192 197
0.835683 0.491726 -0.0888804 197 196 204
0.521009 0.459087 -0.096669 210 210 220
0.711716 0.586499 -0.137573 249 249 249
0.65919 0.37162 -0.126956 161 167 161
0.598691 1.02412 -0.0145117 189 180 182
0.626518 0.525429 -0.132014 244 245 247
0.546212 0.962551 -0.0318516 191 182 184
0.757099 0.652046 -0.124885 214 213 217
0.637646 0.353259 -0.140041 177 182 176
0.578726 0.928556 -0.0472833 195 189 192
1.08546 0.63675 -0.0657855 211 211 218
0.507413 0.474481 -0.135935 244 244 244
0.543614 0.962951 -0.0678078 192 184 184
0.69605 0.369085 -0.125308 161 168 161
0.799045 0.589394 -0.122689 239 240 243
0.561173 0.938387 -0.00767233 195 187 191
0.624184 1.01859 -0.0138808 193 184 185
0.698855 0.57492 -0.139285 250 250 250
0.519449 0.459037 -0.141294 250 250 250
1.02591 0.615228 -0.0879812 216 216 223
0.781748 0.610833 -0.108606 220 219 227
0.556175 0.96242 -0.0661075 193 185 186
0.655726 0.552728 -0.138598 250 250 250
0.777596 0.63154 -0.0518677 208 209 213
0.932147 0.56649 -0.0880701 211 210 217
0.576925 0.388572 -0.125929 193 193 197
0.91304 0.584403 -0.0706984 212 210 218
0.522007 0.984551 -0.108175 193 185 186
0.543138 0.390663 -0.140529 211 212 214
0.615602 0.372459 -0.112844 177 178 180
0.488237 0.505302 -0.124105 216 216 226
0.657219 0.591285 -0.0678431 207 207 216
0.910664 0.623737 -0.0711224 214 214 221
0.640052 0.909364 0.01098 196 188 192
0.658885 0.471316 -0.108053 208 208 214
0.880922 0.570682 -0.068595 208 208 218
0.647797 0.609422 -0.129015 216 214 222
0.566148 0.985841 -0.0327964 193 185 187
0.556725 0.43356 -0.139488 224 224 231
1.04362 0.591908 -0.0874609 209 209 215
0.504771 0.531757 -0.107377 209 208 218
0.766282 0.489919 -0.123612 208 209 213
0.627103 0.504748 -0.0847986 210 209 221
0.498039 0.473135 -0.144573 249 249 249
1.04121 0.711293 -0.0873981 219 219 228
0.800869 0.632188 -0.106932 215 214 221
0.718422 0.611219 -0.0857375 212 211 216
0.756941 0.450723 -0.107778 194 193 195
0.580098 0.914248 -0.00698181 197 188 192
1.06076 0.71597 -0.0463201 213 212 219
0.897189 0.610209 -0.0681821 214 213 221
0.601429 0.353555 -0.115066 156 163 158
0.900803 0.590127 -0.0686583 212 211 218
0.993329 0.708598 -0.0878365 215 215 222
0.689694 1.00061 -0.0700997 201 193 196
0.634242 0.453696 -0.139953 236 237 239
0.52861 0.483573 -0.100088 215 214 226
0.778234 0.552641 -0.122572 241 241 244
0.581127 0.375211 -0.128292 184 185 188
0.957033 0.548999 -0.108971 208 208 214
0.579099 0.412755 -0.139587 213 213 217
0.868316 0.570749 -0.123602 241 241 246
0.714281 0.55292 -0.107383 225 225 235
0.599581 0.436754 -0.138468 208 209 214
0.757452 0.471579 -0.0922669 197 196 198
0.638665 0.951983 -0.027321 197 190 195
0.601165 0.932379 -0.0470895 195 189 192
0.520287 0.95192 -0.106477 194 187 189
0.659469 0.615174 -0.0567066 203 203 212
0.902405 0.651431 -0.106855 226 226 234
1.04543 0.594608 -0.103814 213 213 220
0.711004 0.537682 -0.0853942 212 212 219
0.640539 0.451871 -0.107743 203 203 209
0.576773 0.965523 -0.0249562 193 185 187
0.844663 0.530614 -0.106872 210 210 220
0.622763 0.991129 0.0257205 195 187 188
0.536996 0.410202 -0.12223 203 203 211
0.590339 1.0021 -0.100915 191 184 185
0.817854 0.611771 -0.0681787 213 212 221
0.597733 0.909003 -0.0664613 196 190 193
0.60481 0.337905 -0.116885 160 168 159
0.820462 0.612014 -0.0887977 217 216 226
0.619077 0.433413 -0.138829 221 222 225
1.05941 0.689867 -0.0868412 224 224 233
0.600278 0.969587 -0.0868228 198 191 195
0.660023 0.352502 -0.127064 162 170 161
0.660236 0.996413 -0.0152899 192 184 186
0.578677 0.929329 -0.12364 201 193 196
0.940557 0.509425 -0.118759 203 202 206
0.81926 0.591467 -0.0682357 212 211 221
0.511163 0.555289 -0.0850724 190 190 199
1.06183 0.653222 -0.0466089 210 210 217
0.620553 0.932696 -0.00744124 195 188 192
0.663683 0.53054 -0.0877234 213 212 224
0.50374 0.944044 -0.0680421 188 180 180
0.502583 0.40514 -0.137324 250 249 251
0.521789 0.532655 -0.149512 250 250 250
0.999949 0.672318 -0.0678695 215 215 222
0.771986 0.651423 -0.0682207 209 208 212
0.647621 0.550262 -0.0877885 213 213 223
1.07535 0.64784 -0.0680678 214 214 221
0.601394 0.390363 -0.126804 188 189 194
0.600371 0.91159 -0.0279852 197 189 194
0.764705 0.539346 -0.128898 243 243 247
0.717136 0.517951 -0.114054 222 222 230
0.679405 0.531254 -0.0883136 212 212 221
0.820946 0.611187 -0.12253 234 234 241
1.02769 0.719878 -0.0859558 217 217 224
1.06039 0.712278 -0.0889981 221 221 230
0.879366 0.628799 -0.107433 231 231 239
0.804926 0.60858 -0.110813 226 226 235
0.851292 0.464751 -0.110903 190 190 197
1.0952 0.626856 -0.0691637 210 210 217
0.927619 0.489681 -0.103049 194 193 196
0.872194 0.504432 -0.129072 253 252 254
0.638973 0.930868 -0.0474041 197 192 197
0.502132 0.511382 -0.107234 212 212 222
0.578351 0.468655 -0.136254 238 239 244
0.564388 1.03049 -0.0293558 195 185 185
0.640372 0.510664 -0.138656 249 249 249
0.927158 0.460443 -0.130152 185 187 187
0.622475 0.507357 -0.131447 245 246 247
0.658325 0.450776 -0.107735 201 201 206
0.660343 0.59105 -0.107292 211 211 221
1.03854 0.691696 -0.0300588 210 210 216
0.581067 0.911355 -0.125224 202 194 198
0.519807 0.936394 -0.0464674 192 184 186
0.661598 0.551984 -0.0718809 210 210 220
0.896787 0.611433 -0.105781 232 233 241
0.547671 0.57107 -0.122509 206 204 213
0.598129 1.02587 -0.0454832 189 182 181
0.8587 0.63181 -0.106926 226 226 236
0.672057 0.547669 -0.138508 249 249 250
0.913987 0.569795 -0.0542645 207 205 210
0.658927 0.610634 -0.0891934 207 205 214
1.03507 0.608143 -0.087539 214 214 221
0.662197 0.490281 -0.107713 214 213 221
0.635384 0.927356 -0.0660755 197 192 196
0.681387 0.509289 -0.12568 235 235 241
1.00671 0.690126 -0.107612 227 227 235
0.842745 0.551171 -0.107083 217 217 227
0.676388 0.410422 -0.13983 245 247 247
0.6797 0.475769 -0.138784 245 247 247
0.492431 0.456278 -0.134605 245 244 245
0.623883 0.4918 -0.107131 218 217 230
0.583376 0.965043 0.0102369 193 185 188
0.56421 0.502279 -0.139025 246 248 248
0.7793 0.59719 -0.0567533 210 210 217
0.902625 0.539432 -0.0570763 199 197 206
0.735111 0.592102 -0.0929144 213 212 219
0.821333 0.510503 -0.0870385 204 202 207
0.578066 0.493592 -0.135199 246 246 247
0.578533 0.929474 -0.0671356 196 190 192
0.830316 0.609309 -0.0922263 219 218 231
0.525553 0.385188 -0.132201 202 200 205
0.536055 0.49205 -0.12362 231 232 240
0.890854 0.612393 -0.0512264 211 209 216
1.03174 0.610494 -0.0555634 208 208 211
0.492698 0.473872 -0.103034 215 214 226
0.681948 0.490885 -0.0897559 207 207 214
0.698876 0.651406 -0.107287 202 200 206
0.526872 0.469807 -0.106643 217 217 228
0.5113 0.571871 -0.0843051 187 187 196
0.649233 0.563739 -0.102376 214 214 225
0.935366 0.590399 -0.123137 240 240 245
0.579335 0.949956 -0.0068925 194 186 189
0.830408 0.581655 -0.103022 224 225 237
0.698691 0.610916 -0.0878113 210 209 216
0.522162 0.947345 -0.0486771 190 182 183
0.495136 0.432049 -0.143165 241 242 244
0.605128 0.431057 -0.10778 201 200 209
1.07932 0.650277 -0.0878057 222 222 229
0.728009 0.488708 -0.123938 216 217 223
0.933895 0.548933 -0.07212 203 202 207
0.52008 0.973194 -0.108677 194 186 191
1.06178 0.671707 -0.0887517 226 226 235
0.598914 0.410077 -0.126619 198 198 205
0.681234 0.55207 -0.0738987 211 210 219
0.655869 0.394041 -0.138937 198 199 200
0.611325 1.02222 -0.0298786 191 184 184
0.987652 0.672931 -0.0624107 214 214 221
0.699118 0.908946 -0.067743 196 189 192
0.540682 0.971315 -0.122561 197 189 191
0.638895 0.370766 -0.126451 171 175 173
0.641727 0.469124 -0.127718 218 218 226
0.699108 0.650488 -0.126088 209 209 213
0.581905 0.913432 -0.0277917 197 189 194
0.880467 0.44857 -0.126733 197 198 201
0.61969 0.909644 -0.00707213 196 189 193
0.719425 0.512143 -0.124482 227 227 234
0.676529 0.436926 -0.139744 247 247 247
0.918553 0.493536 -0.125365 214 213 215
0.565232 0.343349 -0.142365 207 211 207
0.559111 0.935753 0.0105449 193 184 187
0.921755 0.512342 -0.122826 207 207 210
0.541021 0.971761 -0.108424 195 187 189
0.542559 0.98942 -0.088923 194 186 188
0.602484 0.952421 -0.1254 202 195 199
0.984035 0.69216 -0.107241 222 222 229
0.619434 0.911009 -0.0873103 198 191 195
0.684569 0.591298 -0.127546 222 222 230
1.08324 0.690303 -0.0875454 227 227 236
0.635669 1.00274 -0.0374792 193 185 186
1.0459 0.674289 -0.0447651 212 211 218
1.04363 0.713423 -0.104776 226 226 233
0.641864 0.929147 -0.0888319 201 193 196
0.733458 0.590902 -0.106129 217 216 223
1.12617 0.533758 -0.0720004 189 188 190
0.634739 0.94348 -0.100895 197 189 190
0.589224 0.958778 0.0230443 191 183 184
0.565777 0.491106 -0.140242 249 249 249
0.60157 0.430198 -0.126164 208 208 214
0.704153 0.600985 -0.0565125 207 207 217
0.56088 0.949487 -0.00819749 192 185 187
0.539749 0.929759 -0.0872067 195 188 189
0.883822 0.59234 -0.0661538 211 211 218
0.761931 0.652077 -0.105962 210 208 213
0.660301 0.567417 -0.13843 249 249 249
0.801903 0.532755 -0.13288 236 236 242
0.606025 0.448184 -0.125913 211 211 221
0.699766 0.591055 -0.0868561 213 212 220
0.616557 0.453342 -0.0951578 203 202 211
0.779174 0.571052 -0.123873 238 238 243
1.07565 0.698452 -0.0997648 232 232 239
0.621253 0.449767 -0.125269 212 212 220
1.11757 0.598753 -0.0565121 201 200 202
0.740726 0.651403 -0.124334 211 210 214
0.564391 1.0071 -0.0735103 194 186 190
0.817174 0.612755 -0.0525753 210 209 218
0.523979 0.471093 -0.124147 234 235 241
0.565719 0.3311 -0.140584 183 187 182
0.659437 0.970674 -0.048425 194 187 189
0.760999 0.471614 -0.123774 203 204 207
0.800501 0.577791 -0.113261 236 236 241
0.602611 0.370711 -0.139512 185 188 186
1.07273 0.705368 -0.0490086 213 213 219
0.69103 0.498374 -0.107073 215 215 223
0.706673 0.456946 -0.116282 205 206 210
0.659147 0.950661 -0.0070905 196 189 193
1.05693 0.689091 -0.0682521 216 216 225
1.00718 0.635582 -0.0867101 220 221 228
0.659402 0.6315 -0.125857 204 202 210
0.678484 0.931095 -0.00556691 197 190 193
0.580118 0.950916 -0.0472051 194 187 189
0.500518 0.489887 -0.148896 248 248 248
0.58171 0.911853 -0.0680081 197 190 193
0.662435 0.509441 -0.0883484 210 210 219
0.807666 0.588728 -0.0542229 211 209 216
0.623532 0.491564 -0.0895759 210 210 221
0.768947 0.50559 -0.0891807 206 205 209
0.855804 0.631344 -0.0488167 210 210 218
0.85367 0.493254 -0.127845 203 203 211
0.579249 0.949467 -0.107657 198 190 192
0.807449 0.473142 -0.132487 217 216 218
0.646569 0.549477 -0.0723172 210 210 220
0.640471 0.470307 -0.0922221 204 204 213
0.521092 0.949041 -0.0682758 192 184 185
0.764948 0.609555 -0.131384 237 238 241
0.749391 0.452822 -0.131417 199 200 202
0.902742 0.65065 -0.0867024 218 218 226
0.558768 0.948637 -0.0270405 193 185 188
0.520103 0.951371 -0.087248 194 186 188
1.09577 0.621133 -0.0580028 207 206 210
0.660763 0.932009 -0.0746589 199 191 194
1.12574 0.550636 -0.0877325 196 195 197
0.715817 0.929182 -0.0291322 196 188 192
0.611699 1.00397 -0.062247 191 184 185
0.619565 0.99212 -0.0683633 192 185 186
0.680142 0.471953 -0.091852 202 202 208
0.547579 0.987602 -0.0688889 193 184 186
1.01574 0.693837 -0.121833 235 235 241
1.0426 0.691018 -0.0462235 213 212 219
0.685601 0.914441 -0.0737145 196 189 192
0.561192 0.932015 -0.107969 198 190 194
0.537601 0.477033 -0.128839 239 240 245
0.881018 0.557002 -0.122074 225 225 232
0.659226 0.61002 -0.067522 205 205 214
0.728268 0.486204 -0.114379 211 213 217
0.638963 0.969824 -0.00613383 196 189 192
0.641119 0.5121 -0.127882 243 244 246
1.00253 0.652606 -0.0473887 209 209 216
0.645229 0.533176 -0.126685 241 241 245
0.809747 0.603129 -0.0604724 214 212 219
0.806485 0.57722 -0.0570198 209 207 214
0.836159 0.530006 -0.126954 222 222 229
1.05567 0.691378 -0.105352 236 236 243
0.834628 0.549394 -0.0719123 207 207 217
0.823316 0.531067 -0.0876851 209 207 214
0.674849 0.454194 -0.0934555 198 197 203
0.522233 0.422536 -0.142509 237 236 241
0.857475 0.611843 -0.128119 249 249 249
1.08081 0.590106 -0.114803 213 213 219
0.615366 0.330081 -0.124369 164 171 163
0.536488 0.477548 -0.138496 247 247 247
0.926068 0.471761 -0.107542 190 189 191
0.797155 0.573906 -0.124221 245 245 246
0.539641 0.935617 -0.00667677 191 182 185
0.701874 0.5912 -0.107606 217 217 225
0.576907 0.459314 -0.137092 246 247 251
0.60551 1.02072 -0.0212455 192 184 185
0.624611 0.410044 -0.108793 189 189 194
0.566809 0.501144 -0.133154 240 241 245
1.08112 0.651638 -0.0993297 228 230 236
0.765579 0.491259 -0.107206 204 205 209
0.670027 0.904232 -0.0385669 196 192 194
1.13236 0.544278 -0.105895 196 195 197
0.484202 0.431858 -0.11247 213 213 224
0.777563 0.648247 -0.109827 211 210 215
0.920932 0.531686 -0.0672008 199 197 206
0.539332 0.937712 -0.0263237 193 185 188
1.00118 0.691577 -0.0878268 219 218 227
0.622369 0.931131 -0.0867929 199 192 196
0.48296 0.451126 -0.110519 217 216 228
0.600639 0.911987 -0.124559 202 194 198
0.910459 0.604379 -0.097221 226 226 236
0.859634 0.635105 -0.123185 234 234 243
0.63889 0.373639 -0.113873 167 170 169
0.57657 0.47377 -0.139483 248 248 248
0.617758 0.471635 -0.107886 213 212 223
0.540606 0.937999 -0.0477042 194 186 188
0.597394 0.909089 -0.0870937 198 191 194
0.66703 0.550429 -0.0874203 214 213 224
0.509075 0.569802 -0.0907646 187 187 196
0.508654 0.549796 -0.0889797 198 198 207
0.507094 0.531496 -0.0903592 207 206 215
0.503093 0.511709 -0.092208 210 210 219
0.498441 0.492032 -0.0941331 212 212 222
0.493673 0.476143 -0.0961709 213 212 223
0.49354 0.451241 -0.10126 212 211 224
0.559934 0.952227 -0.0681457 195 187 190
0.927075 0.505756 -0.0825388 196 195 198
0.4974 0.491824 -0.107903 216 215 226
0.503774 0.551079 -0.107463 203 202 211
0.476269 0.451089 -0.127834 236 236 241
0.481165 0.469595 -0.123265 229 229 239
0.500893 0.590824 -0.107335 188 188 198
0.492863 0.492298 -0.120605 224 224 234
0.840255 0.511307 -0.0879402 201 201 210
0.495679 0.513451 -0.120478 215 214 224
0.488715 0.486747 -0.124213 219 219 229
1.10685 0.657556 -0.103276 234 235 241
0.496217 0.532758 -0.120737 210 208 218
0.496184 0.551699 -0.120934 203 201 210
0.493196 0.571857 -0.120204 190 190 200
0.489927 0.564851 -0.12361 189 189 199
0.608536 0.33748 -0.139579 168 173 163
0.663685 0.392559 -0.11302 180 181 182
0.682378 0.491107 -0.10743 212 212 220
0.821714 0.513091 -0.0742254 202 200 204
0.582316 0.329425 -0.131181 164 171 160
0.793391 0.614743 -0.0966717 215 213 222
0.866009 0.574188 -0.0508316 205 205 215
0.656255 0.347329 -0.138185 164 171 160
0.981702 0.690486 -0.0671602 214 213 220
0.939796 0.511488 -0.0884477 196 196 201
0.883873 0.575524 -0.108675 225 225 235
1.01477 0.653401 -0.102442 229 231 239
0.578115 0.989416 -0.12272 195 188 190
0.580094 1.01121 -0.0867909 192 184 187
0.677161 0.630851 -0.0678773 198 197 206
0.636532 0.512338 -0.108118 221 222 233
0.71876 0.631399 -0.106924 210 209 214
0.542975 0.434628 -0.140854 239 239 243
0.503449 0.947551 -0.0886158 192 184 186
0.662859 0.371208 -0.114233 157 163 158
0.740258 0.650731 -0.0697832 206 204 208
0.643597 0.545844 -0.134075 239 239 247
0.663224 0.551614 -0.108839 221 220 231
0.580195 0.93501 0.0110426 195 187 190
1.07676 0.653634 -0.0511873 210 210 216
0.540015 0.949044 -0.124039 197 189 191
0.582917 0.913512 -0.0479424 196 190 194
0.559975 0.964494 -0.0464236 192 184 184
0.580961 0.973245 -0.0888965 197 189 191
0.775953 0.530547 -0.106776 217 217 224
0.657444 0.338892 -0.117046 163 171 160
0.534636 0.49204 -0.108122 218 219 230
0.897033 0.568421 -0.1065 220 220 228
0.702082 0.552151 -0.0725236 210 210 219
0.694061 0.388396 -0.108283 170 171 173
0.540727 0.412755 -0.111063 202 200 209
0.65773 0.929987 -0.00705125 197 190 197
0.547123 0.531609 -0.123158 216 216 226
0.528976 0.50865 -0.0875419 211 211 221
0.527806 0.49091 -0.0926674 212 212 223
0.524418 0.47332 -0.0951041 211 211 222
0.524341 0.450526 -0.10766 213 213 224
0.527238 0.434365 -0.108551 208 208 218
0.532593 0.425584 -0.108435 205 204 214
0.560548 0.395535 -0.112256 194 192 199
0.577466 0.385912 -0.11354 188 187 193
0.583774 0.379198 -0.112506 185 184 189
0.680808 0.37196 -0.114681 158 165 158
0.679579 0.348291 -0.126416 163 170 159
0.835589 0.569281 -0.10705 225 226 237
0.533917 0.511971 -0.0921681 212 212 222
0.53098 0.495565 -0.0923468 213 213 223
0.552373 0.402762 -0.112611 198 195 203
0.640038 0.350048 -0.127828 163 169 160
0.595849 0.987567 -0.10606 195 187 190
0.621137 0.370266 -0.127627 170 174 171
0.620694 0.352974 -0.128663 163 170 163
0.561451 0.406386 -0.127991 206 206 209
0.59841 0.352145 -0.125455 160 167 160
0.540109 0.511841 -0.107317 216 215 227
0.531276 0.424151 -0.117452 208 208 218
0.530918 0.478269 -0.113462 224 224 235
0.541263 0.391442 -0.129284 203 202 206
0.538111 0.375333 -0.131785 195 194 196
0.546807 0.550925 -0.106192 209 208 218
0.521843 0.450395 -0.122421 223 223 234
0.526387 0.415745 -0.127106 207 207 217
0.69961 0.650375 -0.087761 196 196 202
0.548817 0.551912 -0.124349 209 208 218
0.544112 0.512218 -0.122908 224 224 234
0.55062 0.555059 -0.11522 210 209 219
0.550317 0.566627 -0.114877 207 205 214
0.550383 0.55121 -0.118813 211 210 220
0.516836 0.48258 -0.131515 243 244 248
0.886207 0.608274 -0.114158 246 246 250
1.12769 0.570613 -0.0844592 200 199 202
0.767294 0.586089 -0.128976 241 241 245
0.678747 0.589146 -0.139985 250 250 250
1.12599 0.57672 -0.0674988 199 198 200
0.725298 0.526928 -0.126164 237 237 246
0.641298 0.331601 -0.129936 165 171 159
0.834343 0.570262 -0.0884391 215 214 226
0.680751 0.393807 -0.111078 178 180 181
1.07955 0.672441 -0.0653454 215 215 222
1.04697 0.696497 -0.0862949 222 222 231
0.657712 0.909083 -0.0259249 197 191 196
0.649031 0.570966 -0.0663346 208 208 218
0.640829 0.533399 -0.0755116 210 210 221
0.633837 0.513103 -0.0879338 212 211 223
0.616758 0.473043 -0.0919986 208 208 217
0.607885 0.450558 -0.093549 201 201 210
0.60635 0.436505 -0.0958283 200 198 207
0.607482 0.392304 -0.110101 186 186 192
1.03285 0.608716 -0.0687958 210 209 216
0.599338 0.93186 0.0106516 195 187 190
0.601689 0.914157 -0.00913481 197 189 194
0.657588 0.570771 -0.0713132 210 210 220
0.642312 0.530571 -0.0873852 214 214 224
0.772745 0.514897 -0.0762577 205 204 208
0.608581 0.446001 -0.107423 205 204 214
0.5807 0.933135 -0.00802186 196 188 192
0.615701 0.452991 -0.107177 207 206 216
0.599244 0.930164 -0.00702528 195 188 192
0.658425 0.573266 -0.0874049 211 211 221
0.9822 0.670963 -0.0474943 212 212 218
0.658736 0.591544 -0.0885193 209 208 218
0.619549 0.909255 -0.0269958 196 189 193
0.587235 0.348951 -0.130391 161 168 159
0.579728 0.929887 -0.0274658 195 188 192
0.64385 0.531737 -0.106621 222 222 234
0.628533 0.504825 -0.110494 223 224 236
0.519246 0.931853 -0.0273054 189 182 184
0.647885 0.550785 -0.10566 218 218 229
0.541142 0.948012 -0.0286748 192 184 186
0.658795 0.429672 -0.138207 218 218 219
0.660129 0.571562 -0.107953 216 216 226
0.616878 0.474145 -0.127076 226 226 235
0.58213 0.414133 -0.129479 209 209 213
0.619316 0.491784 -0.128756 238 239 243
0.587997 0.426016 -0.126882 209 209 214
0.599231 0.909426 -0.0474375 196 190 193
0.659935 0.611087 -0.107381 207 206 216
0.560953 0.934255 -0.0476977 195 188 191
0.660135 0.630593 -0.107325 202 200 209
0.883599 0.437006 -0.107546 181 182 185
0.601056 0.487681 -0.133115 245 245 246
0.601015 0.476307 -0.131954 234 235 243
0.658795 0.429909 -0.125207 199 198 202
0.540043 0.948657 -0.0478457 193 185 187
0.559607 0.95141 -0.0478276 194 186 188
0.659586 0.550666 -0.127395 233 233 241
0.660615 0.590535 -0.125475 217 217 226
0.720488 0.611219 -0.125579 218 217 223
0.711034 0.941767 -0.023259 194 187 190
0.660901 0.611817 -0.125157 209 208 218
0.539089 0.950295 -0.067233 194 186 188
1.07342 0.708824 -0.0658092 216 216 224
0.580434 0.910848 -0.0867859 198 191 194
0.55971 0.951285 -0.0878394 196 189 191
0.560584 0.932073 -0.0864379 197 190 192
0.539451 0.95142 -0.0869986 195 187 190
0.58178 0.912896 -0.106865 199 192 196
0.59905 0.910852 -0.107715 199 192 196
0.579055 0.93073 -0.107395 199 191 194
0.540495 0.950464 -0.106813 196 188 191
0.558901 0.947982 -0.106403 197 190 192
0.998849 0.630818 -0.0497863 211 211 217
0.847956 0.496672 -0.13903 249 250 252
0.639965 0.910551 -0.0271943 196 190 193
0.559397 0.950215 -0.123799 199 191 193
0.601263 0.41308 -0.140502 232 232 234
0.761582 0.651585 -0.0906207 208 206 210
0.907677 0.535128 -0.0579961 199 197 206
0.739436 0.65164 -0.106791 206 205 209
0.701669 0.446441 -0.121778 206 204 207
0.660396 0.510546 -0.125648 238 239 243
0.646488 0.998434 -0.0307824 193 185 187
0.899935 0.571367 -0.0645816 207 207 213
1.02 0.612805 -0.0658358 210 210 216
0.819827 0.630826 -0.0879325 215 214 224
0.695374 0.530876 -0.123006 241 241 246
0.71456 0.555072 -0.0760237 211 211 218
0.70591 0.935355 -0.0338957 196 189 192
0.479409 0.533195 -0.146076 243 244 245
0.560553 0.946917 0.0111585 189 181 182
0.599277 0.969006 0.0117919 195 186 189
0.619571 0.971946 0.0119928 197 188 194
0.637922 0.96967 0.0120697 197 189 195
0.638696 0.949665 0.0107436 196 188 194
1.01028 0.666322 -0.0724929 216 216 225
0.659702 0.951052 0.0108015 197 190 195
0.658655 0.928467 0.00983232 196 188 193
0.703445 0.632415 -0.0534145 202 202 209
0.706346 0.611297 -0.0548309 207 207 213
0.700942 0.591797 -0.0693315 210 210 217
0.700748 0.571986 -0.0712872 211 211 219
0.698199 0.53209 -0.0742695 208 208 218
0.692548 0.511895 -0.0761111 207 207 217
0.660955 0.452181 -0.0945705 199 197 204
0.662805 0.418652 -0.0969643 188 186 193
0.662727 0.412869 -0.110161 188 188 192
0.680253 0.409111 -0.109794 185 186 188
0.700129 0.372152 -0.111071 156 163 159
0.578984 0.948768 0.0115078 193 185 186
0.73542 0.63202 -0.0677673 208 207 211
0.716902 0.631887 -0.0533237 206 205 210
0.713507 0.620113 -0.0566628 208 207 213
0.716303 0.611343 -0.0653128 209 209 214
0.71654 0.592345 -0.0694357 211 211 217
0.716707 0.572773 -0.0723077 211 211 219
0.69564 0.512521 -0.0886272 210 210 219
0.661433 0.43144 -0.108817 195 194 199
0.605416 0.975328 -0.0492621 197 189 195
0.702432 0.630887 -0.0673956 206 205 211
0.701325 0.551506 -0.0865108 214 214 223
0.700004 0.531387 -0.0880754 213 213 221
1.10331 0.65455 -0.0887918 223 223 230
0.543202 0.945822 -0.00780518 190 182 184
0.680208 0.471056 -0.107414 206 206 212
0.676373 0.452253 -0.107656 201 200 205
0.598889 0.987733 0.00853913 194 186 188
0.62055 0.993327 0.0110003 195 187 190
0.659661 0.910127 -0.00670525 195 188 193
0.700281 0.571614 -0.0874084 214 214 223
0.679098 0.391153 -0.124966 180 182 182
0.580215 0.967791 -0.00899292 193 185 188
0.633201 0.924859 -0.12413 199 192 194
0.59934 0.971437 -0.00474684 195 186 190
0.600412 0.986271 -0.0083473 195 187 192
0.619741 0.987284 -0.00616572 195 187 191
0.620247 0.971382 -0.00825418 197 189 196
0.694962 0.991806 -0.0684359 201 193 196
0.69497 0.511131 -0.107087 218 218 227
0.616832 0.388949 -0.138544 190 192 192
0.676652 0.410461 -0.126546 190 191 193
0.681202 0.371325 -0.126758 162 169 161
0.699199 0.630606 -0.0874094 207 206 212
0.698531 0.531758 -0.107466 223 223 233
0.638368 0.929374 -0.00687621 196 189 193
0.658012 0.929389 -0.0260157 197 190 196
0.858498 0.591505 -0.0506572 208 207 219
0.700214 0.55071 -0.107499 225 225 235
0.678829 0.451267 -0.12576 204 204 210
0.67742 0.431162 -0.126726 198 198 200
0.587105 0.987004 -0.01069 194 186 189
0.640436 0.931146 -0.0273374 197 190 196
0.702334 0.571716 -0.10736 221 220 229
0.659989 0.391199 -0.127525 183 184 185
0.63872 0.39009 -0.126501 185 186 187
0.61864 0.970461 -0.0275693 197 189 195
0.54273 0.94419 0.0101331 187 180 181
0.621618 0.951714 -0.0268813 196 189 194
0.68147 0.490909 -0.125404 221 221 229
0.564504 0.389627 -0.140994 231 231 233
0.582424 0.986979 -0.0280666 195 186 190
0.599827 0.986817 -0.0283424 195 187 191
0.657726 0.909878 -0.0457705 196 192 196
0.70254 0.610866 -0.107666 212 212 219
0.696673 0.512332 -0.12284 232 232 239
0.694386 0.494289 -0.124977 222 222 231
0.658034 0.451333 -0.125804 206 206 212
0.640699 0.431374 -0.128979 202 202 205
0.60484 0.976649 -0.0287116 196 188 195
0.638947 0.909341 -0.0469903 196 191 195
0.700288 0.631392 -0.107351 208 207 213
0.69014 0.476882 -0.130002 215 215 225
0.622607 0.951802 -0.0478092 197 191 196
0.635436 0.947696 -0.0438939 196 191 195
0.700332 0.573593 -0.125927 230 230 237
0.69904 0.551252 -0.124323 243 243 248
0.677546 0.532207 -0.125434 243 243 247
0.661299 0.529452 -0.127294 243 244 247
0.658298 0.471518 -0.126389 215 215 222
0.562099 0.965745 -0.0288598 191 183 185
0.615794 0.968477 -0.0460762 196 190 194
0.679309 0.551477 -0.12628 237 237 243
0.544297 0.965219 -0.0490901 192 184 184
0.58601 0.423613 -0.141183 237 237 239
0.563313 0.987915 -0.0480202 193 185 187
0.580279 0.989806 -0.048022 195 187 190
0.63881 0.90977 -0.0676037 197 192 197
0.700538 0.610928 -0.125994 218 217 224
0.70091 0.6306 -0.125467 212 211 216
0.518322 0.489317 -0.143044 245 245 246
0.618235 0.950531 -0.0668171 197 191 195
0.620337 0.930175 -0.0678321 197 191 195
0.684776 0.57026 -0.127921 230 230 237
0.613358 0.965636 -0.0624383 196 190 193
0.68391 0.610606 -0.127357 214 213 221
0.594775 0.986962 -0.0671688 197 189 193
0.602453 0.972077 -0.0679102 197 190 193
0.683511 0.63155 -0.127792 212 211 217
0.561501 0.991406 -0.0676246 194 186 188
0.581112 0.991953 -0.0667598 195 187 191
0.637409 0.911558 -0.0872611 200 193 198
0.595862 0.945874 -0.0658996 195 189 190
0.603167 0.953324 -0.0872785 198 191 194
0.520932 0.964818 -0.0700294 193 184 187
0.598683 0.990323 -0.0875278 195 187 191
0.523864 0.963192 -0.0877871 192 184 185
0.580026 0.991132 -0.0870234 197 189 193
0.619482 0.910773 -0.107131 199 192 196
0.600421 0.951814 -0.106381 200 192 198
0.618783 0.95008 -0.107297 198 190 194
0.601608 0.972185 -0.107502 197 189 194
0.539748 0.98532 -0.105411 195 187 189
0.609834 1.02053 -0.0123697 192 184 185
0.581363 0.992742 -0.108247 196 188 192
0.598907 0.928008 -0.106712 199 191 195
0.619619 0.910701 -0.124858 203 196 201
0.604581 0.508716 -0.134742 246 246 247
0.59734 0.928335 -0.124333 204 196 201
0.578243 0.949314 -0.123897 200 192 197
0.580475 0.970982 -0.126959 202 194 199
0.998521 0.643812 -0.12031 249 249 249
0.558918 0.970989 -0.12354 200 192 196
0.899848 0.570764 -0.0882355 213 213 222
1.0992 0.631539 -0.0526731 208 208 212
0.920585 0.585453 -0.120178 236 238 243
0.824416 0.490877 -0.124299 205 205 209
0.879733 0.59281 -0.0534237 208 207 215
1.05838 0.671559 -0.0474015 211 211 218
0.901227 0.610171 -0.0878683 219 219 228
0.619338 0.950345 0.0124011 194 186 189
0.64021 0.930563 0.00998842 195 188 192
0.660555 0.911849 0.0100633 192 185 190
0.674728 0.617396 -0.0570478 205 203 212
0.676153 0.610997 -0.0669515 206 205 214
0.677613 0.59165 -0.0693517 208 208 216
0.660417 0.532824 -0.0754155 209 209 222
0.645593 0.489147 -0.0893789 208 208 218
0.912654 0.651019 -0.069264 214 213 221
0.637255 0.453773 -0.0947846 200 200 206
0.6267 0.438663 -0.0961562 198 195 205
0.626208 0.431188 -0.107526 197 196 205
0.623092 0.393774 -0.111561 183 184 186
0.637122 0.390257 -0.111829 182 183 185
0.661064 0.352779 -0.115386 158 166 158
0.882301 0.590609 -0.108876 232 232 241
0.679787 0.571309 -0.0718937 210 210 218
0.662285 0.491578 -0.0909019 209 209 216
0.642903 0.469982 -0.108051 209 209 218
0.619807 0.949519 -0.00602353 195 187 191
0.684207 0.570768 -0.0877645 214 213 221
0.597145 0.947113 -0.0468183 194 187 189
0.647359 0.489319 -0.108951 215 215 226
0.564379 0.964141 -0.00789804 192 184 186
0.684425 0.591327 -0.0898902 212 211 219
0.663292 0.509983 -0.108365 220 220 229
0.62375 0.41015 -0.127856 193 193 198
0.622099 0.392799 -0.127791 186 187 189
0.672288 0.631278 -0.0854947 200 198 207
0.677643 0.610961 -0.0876705 208 207 216
0.660978 0.530489 -0.107538 221 221 233
0.62567 0.452507 -0.1394 238 239 240
0.617389 0.329181 -0.139869 188 191 185
0.641215 0.450746 -0.128567 209 209 215
0.600113 0.349874 -0.140078 189 194 189
0.578476 0.35123 -0.140791 195 200 196
0.538822 0.932629 -0.10673 197 189 191
0.642332 0.491022 -0.127341 231 232 239
0.617697 0.928535 -0.0470992 195 190 193
0.498689 0.449744 -0.143177 248 248 248
0.478166 0.433131 -0.146227 249 249 249
0.519404 0.470398 -0.141518 248 248 249
0.479163 0.452073 -0.146959 249 249 249
0.479189 0.468692 -0.149775 248 248 248
0.647141 0.596432 -0.134985 212 211 218
0.578434 1.00974 -0.0716771 193 185 188
0.564983 1.01111 -0.0891432 194 186 191
0.637542 0.927966 -0.10572 199 192 194
0.506632 0.96307 -0.0971061 191 183 188
0.638605 0.413152 -0.139073 214 214 215
0.562366 1.01071 -0.10885 193 185 188
0.578711 1.0088 -0.104938 191 184 185
0.81793 0.490787 -0.0861432 199 197 202
0.613366 0.946605 -0.121958 198 191 194
0.596277 0.97019 -0.122871 198 190 194
0.563063 0.993302 -0.126818 199 191 193
0.592026 0.982257 -0.119958 197 189 193
0.541171 0.98296 -0.125681 196 188 194
0.730442 0.582484 -0.120539 223 223 230
0.687597 0.570414 -0.107416 218 218 227
0.904656 0.557157 -0.0856078 207 207 218
0.917081 0.489716 -0.0760073 192 189 192
1.06749 0.659967 -0.0805706 221 221 228
0.619953 0.913148 0.0112551 196 188 191
0.681884 0.53225 -0.0763771 209 208 219
0.678004 0.512528 -0.0890692 211 211 219
0.660981 0.472256 -0.0933312 204 203 209
0.677828 0.512085 -0.106631 218 218 227
0.676048 0.530915 -0.10756 222 222 231
0.682722 0.551275 -0.107119 222 222 231
0.688386 0.591312 -0.10693 214 213 222
0.659057 0.491123 -0.126312 225 225 232
0.67842 0.985222 -0.0167559 193 185 188
0.688415 0.610969 -0.108106 210 210 217
0.564975 0.406176 -0.140722 217 216 220
0.567981 0.457929 -0.137801 226 227 235
0.546564 0.449379 -0.139917 238 238 243
0.537241 0.489905 -0.139816 247 247 248
0.518396 0.936748 -0.0682691 193 186 186
1.05507 0.606967 -0.114716 221 221 228
0.558418 0.908629 -0.105591 198 190 192
0.719253 0.571522 -0.0867714 215 215 222
0.821793 0.53072 -0.107099 214 213 221
0.690991 0.98772 -0.0822229 199 191 195
1.05594 0.669272 -0.034128 209 209 215
1.09458 0.632262 -0.0846877 215 215 222
0.620192 0.93235 0.0110027 195 187 191
0.816724 0.632287 -0.0500971 210 209 217
0.81507 0.596023 -0.055112 210 209 218
0.819631 0.571402 -0.0686332 211 210 219
0.819912 0.552856 -0.0682408 209 208 215
0.619266 0.929693 -0.026768 195 189 192
0.836409 0.531652 -0.0713835 203 202 212
0.834487 0.514363 -0.0743496 200 198 207
0.820608 0.498008 -0.0763102 199 196 203
0.815314 0.47328 -0.0899597 194 193 196
0.839943 0.470787 -0.0896409 191 190 197
0.873824 0.442307 -0.0907695 180 180 187
0.600892 0.950735 0.0114784 194 186 188
0.83196 0.563414 -0.072146 210 209 221
0.761114 0.634466 -0.125432 219 218 223
0.769372 0.507028 -0.111831 210 210 216
0.817765 0.63144 -0.0667678 212 211 220
0.895941 0.429779 -0.105586 167 170 170
0.912877 0.424523 -0.104131 156 162 160
0.640536 0.911245 -0.007804 196 189 193
0.815193 0.650559 -0.0672571 211 210 218
0.840723 0.551371 -0.0871925 210 210 221
0.844731 0.473337 -0.106118 193 193 200
0.859713 0.452863 -0.107738 185 186 191
0.599625 0.949585 -0.00767106 194 187 190
0.741221 0.552541 -0.0953132 215 215 224
0.816871 0.571371 -0.106647 229 229 237
0.817146 0.571672 -0.0868548 217 216 225
0.841361 0.491344 -0.108092 199 199 207
0.81969 0.591479 -0.0880974 217 216 227
0.843565 0.510677 -0.107227 204 204 213
0.816124 0.649751 -0.086696 212 211 220
0.855631 0.46993 -0.126316 201 201 207
0.580319 0.950814 -0.0275938 194 186 189
0.600715 0.932587 -0.0272317 195 188 192
0.845299 0.473613 -0.12568 197 197 204
0.819089 0.611864 -0.10701 223 223 232
0.819754 0.591411 -0.106959 230 230 240
0.819328 0.6303 -0.107667 220 220 228
0.856762 0.513101 -0.127538 213 214 223
0.844877 0.555985 -0.120873 228 228 238
0.853407 0.54674 -0.126502 225 225 234
0.815621 0.470918 -0.125512 204 203 206
0.818602 0.57041 -0.121104 246 247 247
0.796549 0.492938 -0.134757 236 237 240
0.678914 0.451409 -0.138229 232 232 235
0.811136 0.594835 -0.120643 236 236 242
0.777093 0.59242 -0.123907 236 236 242
0.798424 0.548093 -0.12913 244 244 247
0.82336 0.530988 -0.122222 220 219 227
0.77661 0.512648 -0.128076 219 219 225
0.819625 0.630302 -0.122652 227 227 235
0.763169 0.570043 -0.125082 239 239 244
0.74041 0.551196 -0.125455 240 240 245
0.835639 0.630303 -0.125508 232 232 241
0.611117 0.506887 -0.139684 248 248 248
0.600909 0.931647 -0.0675284 196 190 191
0.580017 0.508181 -0.139166 248 248 249
0.804252 0.633193 -0.124868 225 224 231
0.779472 0.612597 -0.123794 226 226 233
0.599521 0.929604 -0.0868678 197 190 193
0.577473 0.946752 -0.0863295 196 189 191
0.798002 0.628653 -0.0937783 213 212 219
0.688155 0.993481 -0.0885483 199 191 194
0.796236 0.57631 -0.0958792 215 215 225
0.733255 0.493111 -0.107987 211 211 216
0.825176 0.550187 -0.120822 231 231 240
0.526598 0.942006 -0.00951745 186 179 180
0.640716 0.430452 -0.140156 229 229 231
0.67373 0.923354 -0.0800414 196 189 192
0.856168 0.612575 -0.0485063 209 209 219
1.03034 0.662466 -0.117918 249 249 249
0.87949 0.569389 -0.0552066 205 205 215
0.884328 0.556896 -0.0533001 203 203 213
0.894529 0.545662 -0.0557607 200 199 209
0.87881 0.630225 -0.0877557 219 219 227
0.889088 0.560102 -0.0601409 205 205 215
0.900599 0.551341 -0.0665069 204 204 213
0.860098 0.61049 -0.0677787 212 212 222
0.862472 0.591026 -0.0678391 211 211 221
0.567931 0.472419 -0.139008 243 244 246
0.922543 0.552702 -0.0667059 204 202 208
0.859867 0.63184 -0.0664738 213 212 222
0.924648 0.53714 -0.086289 202 201 210
0.940107 0.531114 -0.0881584 202 201 207
0.559509 0.911879 -0.00637402 196 187 192
0.853537 0.647933 -0.0669752 212 212 220
0.920281 0.551871 -0.0892339 207 208 214
0.873055 0.584306 -0.0872938 217 217 229
0.881625 0.575559 -0.087083 214 214 225
0.941112 0.494242 -0.109627 196 195 199
0.958585 0.488746 -0.104199 192 191 195
0.863738 0.611835 -0.0883723 219 218 231
0.866868 0.594534 -0.0875113 217 217 229
0.940961 0.530513 -0.106629 205 204 211
0.940641 0.510965 -0.106832 200 199 204
0.686923 0.97341 -0.107886 195 191 191
0.859123 0.631714 -0.0864199 217 216 228
0.91682 0.548692 -0.106073 211 210 220
0.922611 0.533967 -0.10918 209 208 214
0.8564 0.64731 -0.0874788 214 214 224
0.904123 0.555268 -0.109181 216 216 224
0.860225 0.610432 -0.105977 231 233 243
0.863686 0.591146 -0.108137 234 235 243
0.94028 0.552193 -0.106591 211 210 218
0.919655 0.552258 -0.123491 218 218 226
0.743702 0.433683 -0.138371 250 251 251
0.900863 0.631939 -0.108163 232 233 240
0.880694 0.571304 -0.124443 240 240 245
0.901238 0.565985 -0.123058 228 228 237
0.84195 0.616901 -0.126607 245 245 247
0.77742 0.529976 -0.126575 230 230 236
0.858051 0.649967 -0.126366 229 230 236
0.484983 0.490235 -0.152768 250 250 250
0.998899 0.671966 -0.0872749 221 221 230
0.775325 0.631223 -0.0674035 211 211 215
1.12731 0.591424 -0.0849517 205 204 208
0.881274 0.609621 -0.0496308 210 209 216
0.894925 0.592233 -0.0517961 211 209 217
0.908542 0.57694 -0.052637 208 206 212
0.919008 0.57106 -0.0690054 209 207 214
0.923951 0.491133 -0.0871494 193 192 194
0.920041 0.470598 -0.0875696 186 186 188
0.926928 0.458889 -0.0884278 184 183 185
0.927913 0.458497 -0.101522 185 185 186
0.899361 0.651021 -0.069069 216 214 222
0.902918 0.591965 -0.0872582 218 217 225
0.917316 0.588966 -0.0888589 218 217 227
0.920232 0.571708 -0.0859188 212 212 219
0.940001 0.473487 -0.115647 193 192 193
0.902307 0.6305 -0.0885897 221 220 229
0.68654 0.347052 -0.138967 224 226 223
0.934904 0.569549 -0.107671 217 217 225
0.936765 0.491014 -0.121885 198 197 199
0.560854 0.912452 -0.0278472 196 188 191
0.917916 0.588982 -0.106627 227 227 235
0.899949 0.594953 -0.107547 233 234 240
0.877774 0.59295 -0.121129 246 246 248
0.899026 0.588067 -0.121599 245 246 248
0.919847 0.577902 -0.12476 235 235 243
0.617264 0.482714 -0.137703 247 247 247
1.05321 0.688643 -0.0507615 214 213 220
0.560959 0.910253 -0.0681104 197 189 190
0.541939 0.911935 -0.0888337 197 189 191
0.560759 0.911271 -0.0880502 197 190 191
1.07943 0.672056 -0.0871551 224 225 233
0.716827 0.631623 -0.0672459 208 207 210
0.508636 0.943276 -0.0506918 180 172 172
0.764087 0.491059 -0.0910567 203 202 205
0.808482 0.570848 -0.063365 210 209 217
0.806032 0.47118 -0.086154 194 192 195
0.599418 0.393231 -0.140321 211 212 214
0.80881 0.588874 -0.0659778 213 211 219
0.822592 0.55122 -0.087198 214 213 221
0.813978 0.470391 -0.107979 197 196 198
0.818121 0.490151 -0.106955 203 201 206
0.822424 0.511342 -0.107869 209 207 214
0.619845 0.349925 -0.139866 183 187 183
0.825109 0.509144 -0.124164 211 210 217
0.704924 0.409736 -0.136722 212 214 214
0.758751 0.449788 -0.125255 199 198 200
0.659848 0.410204 -0.138082 207 207 208
0.804527 0.590924 -0.10779 227 228 235
0.78131 0.468738 -0.134621 240 239 241
0.790461 0.520718 -0.132998 234 235 239
0.643479 0.549023 -0.137795 242 242 243
0.778804 0.629979 -0.122793 221 220 226
0.720312 0.592463 -0.127047 226 226 232
0.738999 0.638879 -0.131486 237 236 238
1.12828 0.534189 -0.0871275 191 191 192
0.647275 0.440889 -0.0968785 196 195 197
0.640652 0.431415 -0.108385 197 196 198
0.633963 0.412313 -0.110127 191 190 192
0.677666 0.949955 0.0141127 196 189 192
0.657439 0.969751 0.0144179 196 189 192
0.638937 0.987982 0.0145175 195 187 191
0.671506 0.945768 -0.00125014 196 189 192
0.652546 0.963803 -0.00166092 196 189 192
0.585483 0.369265 -0.139783 193 197 195
0.631925 0.983139 -4.03219e-05 196 188 191
0.654552 0.945172 -0.0244454 196 190 193
0.67555 0.91056 -0.0249808 196 191 193
0.717689 0.650293 -0.0868377 205 204 207
0.71815 0.630048 -0.0885268 209 208 212
0.67149 0.927311 -0.0186017 197 190 193
0.538713 0.372681 -0.141957 217 217 218
0.633854 0.967071 -0.024363 196 189 192
0.614978 0.984782 -0.0238387 194 187 189
0.654348 0.927302 -0.0437694 196 192 194
0.623475 0.995587 -0.0503872 193 186 187
0.655926 0.910507 -0.0695101 201 193 197
0.644133 0.954568 -0.06961 196 188 191
0.584649 0.97907 -0.0745237 196 189 190
0.526512 0.988565 -0.0923966 192 184 185
0.556225 0.964728 -0.0851515 194 187 188
0.560651 0.972015 -0.107575 197 189 190
0.987262 0.652434 -0.0471491 211 211 217
1.03712 0.683477 -0.11954 247 249 250
0.782362 0.591009 -0.0677014 212 212 219
0.780603 0.57128 -0.0690285 210 210 217
0.779965 0.551782 -0.071627 209 210 216
0.778097 0.53261 -0.0735588 207 207 211
0.75517 0.451314 -0.093462 191 190 191
0.779628 0.611334 -0.067211 213 212 218
0.777296 0.531604 -0.0879082 210 210 217
0.773255 0.514793 -0.0875396 208 207 212
0.765024 0.435681 -0.107606 187 187 188
0.782064 0.551448 -0.0867045 213 213 220
0.760154 0.47136 -0.107114 199 199 202
0.783388 0.591119 -0.087908 217 217 225
0.734628 0.63103 -0.106841 210 208 214
1.11011 0.662053 -0.082325 221 221 228
0.771779 0.514585 -0.105713 211 211 218
0.659122 0.332437 -0.140283 186 190 185
0.77559 0.631967 -0.0898086 213 211 218
0.779316 0.55084 -0.106998 224 224 231
0.77121 0.64664 -0.0841543 210 209 213
0.780118 0.570646 -0.108068 226 226 234
0.649297 0.529653 -0.1377 249 249 249
0.780471 0.591227 -0.106957 223 222 231
0.777599 0.629506 -0.105898 216 215 221
0.775215 0.493335 -0.129195 211 212 217
0.620536 0.411906 -0.139803 226 226 228
0.763436 0.637133 -0.108243 213 212 218
0.760746 0.548606 -0.123792 238 238 243
0.736176 0.56935 -0.125007 231 231 237
0.641723 0.368503 -0.139292 169 174 169
0.621494 0.473745 -0.138567 232 232 239
0.597964 0.48986 -0.138036 249 249 249
0.645639 0.583958 -0.137601 250 249 253
0.680126 0.431576 -0.108818 194 194 195
0.719862 0.591287 -0.0854827 213 213 219
0.641425 0.38755 -0.140687 220 220 221
0.597731 0.949282 -0.0271197 194 187 190
0.723053 0.611088 -0.10825 215 213 220
0.7214 0.650628 -0.107077 206 205 209
0.659931 0.448418 -0.138441 215 216 220
0.656165 0.469947 -0.13878 230 231 233
0.523075 0.944179 -0.0299791 186 178 179
0.655554 0.589037 -0.138282 251 251 252
0.658481 0.615515 -0.138066 246 245 248
0.998638 0.692151 -0.0678622 214 214 221
0.629816 0.358949 -0.116347 154 159 149
0.630063 0.354922 -0.11722 156 161 151
0.524764 0.387825 -0.141102 202 203 205
0.613743 0.986226 -0.0840587 193 186 187
1.01267 0.646915 -0.0520836 210 210 217
0.990909 0.6712 -0.0363082 211 209 216
1.01952 0.631594 -0.0495679 211 210 216
1.02331 0.62942 -0.0681533 212 212 219
0.699816 0.930454 -0.0460306 196 189 192
1.01507 0.651093 -0.0680108 213 213 221
1.01081 0.691306 -0.115747 231 231 238
0.994164 0.705996 -0.0678216 213 213 219
1.01639 0.64982 -0.0869777 221 221 230
1.02141 0.63056 -0.08814 220 220 227
1.01192 0.664387 -0.0861282 221 221 230
1.0384 0.609918 -0.106691 220 220 227
1.01836 0.629749 -0.104448 230 230 237
0.999833 0.673569 -0.104986 230 230 239
0.996356 0.651091 -0.104319 238 239 246
0.987657 0.660184 -0.115117 247 248 252
0.894239 0.614217 -0.120808 247 247 249
0.87654 0.630374 -0.124888 242 242 247
0.521009 0.932452 -0.0884902 194 187 188
1.0438 0.674842 -0.0306969 210 209 216
1.07916 0.633638 -0.0493063 208 209 213
1.09331 0.619158 -0.052313 205 206 210
1.12455 0.590996 -0.0672273 202 201 203
1.03745 0.708482 -0.0493888 214 212 219
1.12156 0.549073 -0.073591 195 194 195
1.11902 0.604583 -0.0718774 204 204 207
1.05972 0.672982 -0.066141 216 215 224
1.06769 0.657447 -0.0687137 215 215 222
1.03935 0.711517 -0.066316 215 214 221
1.12152 0.605108 -0.0833393 206 207 211
1.12788 0.551362 -0.0980173 197 196 198
1.06355 0.671884 -0.103155 240 241 247
1.04409 0.650318 -0.113264 249 249 249
1.04317 0.680302 -0.113332 232 233 237
1.04999 0.6987 -0.116261 243 244 248
0.751646 0.601402 -0.137514 248 248 248
1.07544 0.668563 -0.0495116 211 211 217
1.10531 0.650653 -0.0726516 215 215 222
1.05801 0.710867 -0.0693064 216 216 224
1.11895 0.6506 -0.0881645 220 220 227
1.09857 0.670203 -0.0876328 224 225 232
0.620179 0.374383 -0.141701 226 226 227
1.07755 0.669357 -0.102148 232 233 241
1.09448 0.664914 -0.0992716 232 234 240
1.05031 0.644786 -0.114692 249 249 249
1.02149 0.678969 -0.119169 246 247 248
0.740364 0.570686 -0.106997 220 220 228
1.00414 0.631915 -0.0667055 213 213 219
0.679542 0.930168 -0.0658957 196 189 192
0.996184 0.650736 -0.0677401 214 214 222
0.776918 0.510702 -0.13939 248 248 248
0.989347 0.660957 -0.0626195 214 214 221
1.05482 0.587373 -0.0886435 207 208 213
0.999901 0.64999 -0.0869356 222 222 230
0.981984 0.691594 -0.0872908 217 216 225
1.00078 0.637519 -0.107007 230 232 239
1.09112 0.579308 -0.117272 209 210 214
1.09544 0.569354 -0.121512 207 208 212
1.07573 0.603575 -0.11819 218 218 225
0.986587 0.66646 -0.11274 239 239 246
0.597572 0.957377 0.0229011 192 184 186
1.08178 0.691702 -0.0683228 217 216 224
0.872884 0.627608 -0.0716057 215 214 221
1.07307 0.706538 -0.087104 223 223 232
0.500214 0.529283 -0.14878 250 250 250
0.844959 0.636647 -0.0449103 209 209 215
0.887441 0.613782 -0.0823576 217 217 225
0.955802 0.543951 -0.0936751 205 204 208
0.964435 0.5318 -0.106414 203 203 207
0.639438 0.991094 -0.0460118 193 186 188
0.971814 0.546222 -0.120449 209 210 214
0.845622 0.656684 -0.106793 216 216 223
0.574939 0.962445 -0.0451008 193 185 185
0.812943 0.527625 -0.13756 249 248 250
0.778412 0.615699 -0.139106 249 249 249
0.701011 0.645443 -0.138525 249 248 250
0.63914 0.951883 -0.0877209 196 188 190
0.731708 0.615232 -0.07026 210 209 214
0.716329 0.550363 -0.0866217 214 214 221
0.73065 0.595197 -0.0723009 211 211 216
0.734403 0.612715 -0.0896257 211 210 216
0.736131 0.633097 -0.0876193 209 207 212
0.737162 0.652543 -0.0897213 205 204 207
0.718573 0.572031 -0.107127 222 222 230
0.722137 0.591685 -0.108351 218 218 225
0.722746 0.650298 -0.12594 208 207 211
0.576655 0.489204 -0.139252 250 250 250
0.698623 0.606013 -0.138073 250 250 250
0.672891 0.618848 -0.138482 249 249 249
0.577936 1.02719 -0.014089 193 185 187
0.682432 0.972436 -0.028499 195 187 188
0.694574 0.967936 -0.0212948 195 186 189
0.699926 0.951116 -0.029019 195 188 191
0.638061 1.0072 -0.0257122 192 184 185
0.654509 1.00256 -0.0189789 193 185 186
0.659671 0.990522 -0.0280483 193 186 187
0.675773 0.985052 -0.0238237 194 186 188
0.579913 1.02757 -0.0284365 188 180 181
0.599385 1.02486 -0.0283261 190 182 181
0.620515 1.01575 -0.0287454 192 184 185
0.688445 0.960017 -0.0348105 195 188 191
0.71073 0.922635 -0.0406777 196 189 192
0.667199 0.977523 -0.0368212 195 187 188
0.674837 0.966452 -0.0401332 195 188 191
0.692513 0.943795 -0.0421385 195 189 192
0.70467 0.914454 -0.0527687 196 189 192
0.652427 0.984713 -0.0403579 194 187 188
0.686616 0.938263 -0.0525122 196 189 192
0.581635 1.03238 -0.0479938 185 177 178
0.605542 1.01714 -0.0515281 190 183 183
0.646535 0.976909 -0.0536405 194 187 188
0.667287 0.956139 -0.0542981 195 188 191
0.699062 0.930695 -0.0698821 197 189 192
0.654235 0.963099 -0.0600969 195 188 191
