ply
format ascii 1.0
comment Created by Open3D
element vertex 1336
property double x
property double y
property double z
property uchar red
property uchar green
property uchar blue
end_header
-1.72777 -0.0223984 0.29005 255 0 0
-1.04648 -1.00699 1.0525 255 0 0
0.999149 0.72086 -0.00798331 255 0 0
-0.29888 -0.944258 0.732392 255 0 0
0.900566 -0.687541 2.91371 255 0 0
-0.720876 -0.997718 0.398434 255 0 0
0.279341 -0.685608 2.71206 255 0 0
1.7034 -0.221291 2.41531 255 0 0
0.976732 0.53741 0.00649448 255 0 0
1.38215 -0.938606 2.01825 255 0 0
-0.999718 -0.443305 -0.125896 255 0 0
-0.518673 -0.583015 0.51233 255 0 0
0.457155 -0.950094 1.62194 255 0 0
-1.21821 -0.762922 0.692079 255 0 0
-1.2049 -1.19738 0.168091 255 0 0
-1.32416 0.235232 1.22757 255 0 0
0.708018 -0.39632 3.05919 255 0 0
-1.1153 -1.22211 1.02652 255 0 0
-0.109675 -1.04947 -0.441252 255 0 0
-1.20905 -1.21239 1.06226 255 0 0
-1.40565 -0.485749 0.152452 255 0 0
-0.0405578 -0.689847 1.29305 255 0 0
-0.372088 -0.377457 -0.59856 255 0 0
0.0792081 -0.699584 1.21261 255 0 0
-0.678131 -0.151483 0.475275 255 0 0
-1.13714 -1.22508 0.997475 255 0 0
-0.85959 -1.00231 0.0344535 255 0 0
0.241866 -0.685028 2.65518 255 0 0
-0.220749 -0.563124 2.34961 255 0 0
-1.63463 -0.183737 0.512862 255 0 0
-1.31928 -0.680651 0.173641 255 0 0
-1.35574 -0.660206 0.178781 255 0 0
-0.97849 -1.08082 0.12022 255 0 0
-1.22306 0.758124 0.676471 255 0 0
-1.7224 -0.444474 -0.0311415 255 0 0
-0.762019 -0.428782 2.1138 255 0 0
-0.376275 -1.06782 0.721379 255 0 0
-0.699769 -0.963822 0.398661 255 0 0
-0.61107 -0.433789 0.520877 255 0 0
-0.697244 -1.02601 1.66107 255 0 0
-1.26154 -0.44472 0.0315084 255 0 0
-1.04915 -0.128972 0.818749 255 0 0
-0.921756 -0.224373 -0.206121 255 0 0
-0.138286 -1.21977 -0.62324 255 0 0
-0.94093 -0.645043 0.332146 255 0 0
-0.83866 -1.24546 0.732602 255 0 0
-0.508191 0.15798 2.46737 255 0 0
-0.470472 -1.2322 1.51648 255 0 0
-0.925249 -1.20753 1.22855 255 0 0
1.25959 -0.884689 2.61459 255 0 0
-0.482148 -1.04677 0.534719 255 0 0
-0.720104 -0.46832 -0.0859175 255 0 0
-1.18558 -0.261187 0.473413 255 0 0
1.57861 -1.20125 1.87084 255 0 0
-1.28052 -0.681581 0.211334 255 0 0
0.95918 -0.702797 2.87237 255 0 0
0.607223 0.659515 -0.156336 255 0 0
-0.597536 -1.06453 0.477587 255 0 0
-0.984339 -1.26108 -0.222238 255 0 0
-0.424237 -1.00631 0.688112 255 0 0
-0.640075 -0.319071 2.07159 255 0 0
-0.826809 -1.24532 0.63381 255 0 0
-0.335535 -0.894885 0.72135 255 0 0
-1.08131 -1.24272 0.853189 255 0 0
-1.13224 -0.51364 0.481329 255 0 0
-1.14607 -1.24314 0.052414 255 0 0
1.28119 -0.150083 2.51509 255 0 0
0.137538 -0.8837 1.11568 255 0 0
-0.777519 -0.263155 1.95227 255 0 0
0.0254149 -0.678538 1.85885 255 0 0
-0.661252 0.615846 2.38875 255 0 0
-0.631726 -1.15237 0.086562 255 0 0
-1.04051 -0.443376 -0.102747 255 0 0
-0.131371 -1.11944 1.24169 255 0 0
-0.978968 -0.652107 0.391706 255 0 0
-0.0967027 -0.981291 -0.371221 255 0 0
-0.0972782 -1.22967 -0.441719 255 0 0
-0.581619 -1.22388 0.492922 255 0 0
-0.361359 -1.22178 0.452621 255 0 0
-0.947635 -0.751765 0.369638 255 0 0
-0.760332 -0.930254 0.514755 255 0 0
-0.896627 -1.02257 0.0293852 255 0 0
-0.0875163 -1.20358 -0.210215 255 0 0
1.36368 -0.647591 2.63714 255 0 0
-0.25885 -0.615973 2.28445 255 0 0
-0.887664 -1.22621 1.09848 255 0 0
1.6739 -0.846965 1.97228 255 0 0
-0.22076 -1.1177 -0.00589957 255 0 0
-0.659347 -0.502231 0.559893 255 0 0
-1.19355 -1.23625 0.0323933 255 0 0
-0.0568423 -0.428684 2.18976 255 0 0
-0.357402 -1.04684 0.761383 255 0 0
1.14059 -0.627872 1.93627 255 0 0
-0.818852 -0.441269 2.05127 255 0 0
0.678424 -0.809876 1.9593 255 0 0
-0.946459 -0.363935 -0.15433 255 0 0
-1.09755 -1.31663 1.04795 255 0 0
-0.321949 -1.14498 0.109524 255 0 0
-1.78428 -0.262965 0.134986 255 0 0
-0.355431 -1.04089 0.512986 255 0 0
-0.500133 -0.0636229 2.41369 255 0 0
0.686143 -0.328559 3.1174 255 0 0
0.306557 -0.680499 2.62053 255 0 0
-1.33557 -0.44254 1.15257 255 0 0
-1.73865 -0.289882 0.0665406 255 0 0
-0.191462 -0.802993 -0.581098 255 0 0
-1.28234 -0.408788 0.0122962 255 0 0
1.44007 -1.38105 2.59331 255 0 0
-0.545319 -0.866368 0.268508 255 0 0
-0.640186 -1.12639 0.507404 255 0 0
-0.376425 -0.578585 2.15348 255 0 0
-1.13382 -1.21461 0.151028 255 0 0
-1.08954 0.570245 0.510915 255 0 0
-0.462095 -0.386577 -0.550994 255 0 0
-0.699223 -1.20177 0.185974 255 0 0
-0.245631 -0.682153 0.619811 255 0 0
-0.093594 -1.0161 -0.359189 255 0 0
-0.657942 0.636538 2.38717 255 0 0
-1.2316 -0.759964 0.688803 255 0 0
-0.449024 -1.21127 0.783723 255 0 0
-0.524621 -0.022731 2.46448 255 0 0
-1.03405 -1.16667 0.0756656 255 0 0
-0.492465 -0.726879 0.317994 255 0 0
-1.69696 0.436897 0.252199 255 0 0
0.959835 0.739326 -0.207019 255 0 0
-0.920147 -0.31756 0.57444 255 0 0
-0.258701 -0.66371 0.613674 255 0 0
-0.579101 -1.06715 1.58799 255 0 0
-0.581417 -1.10422 0.0797418 255 0 0
-0.740573 -0.929653 0.512818 255 0 0
-1.36884 0.373188 0.852341 255 0 0
-1.72346 -0.285348 -0.114012 255 0 0
1.08468 -0.87936 2.43532 255 0 0
0.655904 -0.147099 3.5066 255 0 0
0.267036 -1.03576 1.31188 255 0 0
-1.08997 -1.24852 0.00368764 255 0 0
-0.521344 -0.715599 -0.372473 255 0 0
-0.817799 -0.302507 1.93215 255 0 0
-0.303938 -1.04678 0.808005 255 0 0
-0.0852764 -1.16719 -0.413839 255 0 0
-1.2254 -0.723198 0.652792 255 0 0
0.348076 -0.6807 2.60197 255 0 0
-1.00339 -1.26321 -0.0701726 255 0 0
-0.607596 -1.16666 0.15163 255 0 0
-1.3079 0.152608 -0.313561 255 0 0
-0.520749 -0.703199 1.99211 255 0 0
-1.69605 0.438356 0.388418 255 0 0
-1.31765 -0.56139 0.490536 255 0 0
-0.684672 -0.696901 0.00190524 255 0 0
-0.121264 -1.22919 -0.610379 255 0 0
-1.19544 0.141329 -0.399582 255 0 0
-1.2602 -0.423506 0.0120429 255 0 0
-0.673954 -1.13565 0.372969 255 0 0
-0.500909 -0.42218 2.46967 255 0 0
-0.80565 -1.20382 0.670388 255 0 0
-1.19939 -0.262741 0.453887 255 0 0
-0.313149 -0.803761 0.690182 255 0 0
-0.952705 -1.10229 1.25358 255 0 0
-0.0624578 -1.05562 1.17505 255 0 0
-0.826878 -0.783007 0.272383 255 0 0
-0.815527 -0.83531 0.271947 255 0 0
1.26186 -0.959844 2.61202 255 0 0
0.957379 0.695877 0.113496 255 0 0
-0.722281 -1.18851 0.15249 255 0 0
0.859388 -0.184033 0.197165 255 0 0
-0.281809 -0.222739 -0.650182 255 0 0
0.4165 -0.919804 1.43932 255 0 0
1.15807 -0.740757 2.73351 255 0 0
-0.222965 -1.24458 1.36645 255 0 0
-1.2414 -0.682128 0.210933 255 0 0
-1.28095 -0.685947 0.19205 255 0 0
-1.18538 -1.19054 0.108647 255 0 0
-1.12196 -1.20009 0.802062 255 0 0
-1.32076 -0.144312 1.21414 255 0 0
-1.72979 -0.226826 0.45156 255 0 0
-0.546471 -0.925612 0.238979 255 0 0
-0.778113 -0.935033 0.623961 255 0 0
-0.541571 0.496744 2.48979 255 0 0
-1.54704 -0.123673 0.159238 255 0 0
1.00575 -0.343364 -0.288873 255 0 0
-0.954327 -0.636573 0.320525 255 0 0
-1.71447 -0.454614 -0.0379783 255 0 0
0.52112 -0.640885 2.11143 255 0 0
-0.468511 -1.26853 0.718069 255 0 0
-0.489006 -0.616282 0.584185 255 0 0
-0.140928 -1.18847 -0.651702 255 0 0
0.844825 -0.240503 2.6989 255 0 0
-0.619272 -0.223551 0.374131 255 0 0
-0.802498 0.0761635 -0.654547 255 0 0
-0.0751295 -0.676806 -0.146652 255 0 0
-0.624714 -1.16162 0.462234 255 0 0
-1.12694 -0.94106 0.776103 255 0 0
-1.10935 -1.12344 -0.0499733 255 0 0
-0.619555 0.417037 2.41085 255 0 0
1.3338 -0.941702 2.74994 255 0 0
-1.12052 -0.666821 0.310716 255 0 0
1.08036 -0.120387 2.5709 255 0 0
1.47296 -1.34054 2.67094 255 0 0
0.298684 -0.685487 2.75422 255 0 0
-0.603087 -0.443213 0.520163 255 0 0
-0.539323 0.0965279 2.43127 255 0 0
-0.458131 -0.763784 0.316848 255 0 0
-0.463196 -0.785531 0.318087 255 0 0
-1.03943 -0.502394 -0.128693 255 0 0
-0.873015 -0.716769 -0.0840398 255 0 0
-1.12097 -0.524163 -0.0654723 255 0 0
0.745762 0.279654 0.0438732 255 0 0
-0.474577 -1.08289 0.527518 255 0 0
-0.761116 -0.924493 0.532806 255 0 0
-0.299432 -0.208503 -0.655347 255 0 0
-0.596286 -0.916076 1.47318 255 0 0
-1.16391 -0.485017 -0.0291086 255 0 0
0.0788254 -1.18521 1.17033 255 0 0
-0.741723 -0.905067 0.708157 255 0 0
-1.30065 -0.123284 1.19251 255 0 0
-0.543856 -1.21031 0.67729 255 0 0
0.904437 0.442506 -0.190746 255 0 0
-0.162065 -0.865532 -0.631874 255 0 0
-1.04737 -1.27407 -0.0331415 255 0 0
-0.159595 -1.28565 1.15654 255 0 0
0.628361 -0.848952 1.88249 255 0 0
0.851512 0.536828 0.213771 255 0 0
-0.515222 -1.06266 0.329473 255 0 0
1.40969 -0.095122 2.46387 255 0 0
-0.825505 -0.00397491 2.11805 255 0 0
0.938728 -0.7183 2.89155 255 0 0
-1.41905 -0.340948 -0.220563 255 0 0
0.844211 0.131366 0.202538 255 0 0
-0.163646 -1.11001 -0.0257129 255 0 0
-1.28086 -0.423706 -0.00898629 255 0 0
0.678747 -0.662179 2.05086 255 0 0
0.853828 0.357793 0.2317 255 0 0
-0.557012 -1.0226 0.254282 255 0 0
1.78976 -0.629268 2.28285 255 0 0
-0.637732 -1.20255 0.472923 255 0 0
1.27391 -1.22194 2.31234 255 0 0
1.1631 -1.06221 2.47175 255 0 0
-0.48446 -0.677391 0.256295 255 0 0
-0.326694 -0.947725 0.677577 255 0 0
1.10003 -0.267848 2.79158 255 0 0
0.617714 -0.0828467 -0.287426 255 0 0
1.47866 -1.39358 2.64204 255 0 0
-1.02341 -0.821858 0.946841 255 0 0
-0.359182 -1.12436 0.113436 255 0 0
0.827152 0.654177 -0.311661 255 0 0
0.84506 -0.318396 2.667 255 0 0
-0.427151 -0.998157 0.606581 255 0 0
-0.801135 -0.944546 0.491708 255 0 0
-1.6563 0.402366 0.650509 255 0 0
-1.71772 0.0285818 0.217507 255 0 0
-1.06306 -0.443972 0.796303 255 0 0
-0.930505 -1.08745 0.00524288 255 0 0
-0.809089 -1.0977 -0.0179266 255 0 0
-1.3493 -0.618043 0.256315 255 0 0
-0.493781 -0.673417 -0.606677 255 0 0
-0.897096 -0.960698 1.07132 255 0 0
-0.318461 -0.717893 2.02386 255 0 0
-0.940209 -0.650019 0.272097 255 0 0
-1.06067 -0.69485 -0.0451966 255 0 0
-1.1217 -1.10428 0.81267 255 0 0
-1.4404 -0.323208 -0.209451 255 0 0
1.19113 -1.01887 2.52506 255 0 0
-0.358425 -1.08512 0.474106 255 0 0
-0.922529 -1.00433 1.29157 255 0 0
-0.00694256 -0.98183 1.16581 255 0 0
-0.79989 -1.1581 0.709987 255 0 0
-0.264664 -0.96383 1.34799 255 0 0
-0.314013 -1.0026 0.792473 255 0 0
-1.32302 0.173695 1.2254 255 0 0
-0.497733 -0.682462 0.26709 255 0 0
-1.6024 0.350519 0.60941 255 0 0
-0.112015 -1.12926 -0.644446 255 0 0
-1.08176 -1.16467 0.812109 255 0 0
-1.22258 -0.637243 0.597439 255 0 0
-0.964779 -1.24702 -0.0838725 255 0 0
-0.179819 -0.823927 -0.566228 255 0 0
-0.161488 -0.884284 -0.561832 255 0 0
-0.0983513 -1.21666 -0.640859 255 0 0
1.26595 -0.614132 1.89975 255 0 0
-0.0368268 -0.371154 1.85671 255 0 0
-0.919048 -0.781017 1.32939 255 0 0
-0.795441 -0.404619 0.760897 255 0 0
-0.28665 -0.261688 -0.562999 255 0 0
-0.642431 0.992634 1.63257 255 0 0
-1.45827 -0.358622 -0.198493 255 0 0
-0.940383 -0.0029827 -0.543385 255 0 0
-0.67328 -0.813605 0.155727 255 0 0
-0.217045 -0.782233 -0.552782 255 0 0
-0.198745 -0.582021 -0.660238 255 0 0
0.855626 0.095973 -0.383064 255 0 0
-1.30428 0.316106 1.22671 255 0 0
1.11948 0.835118 0.0328134 255 0 0
-0.445453 -0.814825 0.662894 255 0 0
-0.864497 -1.2035 1.01028 255 0 0
0.877834 0.537896 -0.449691 255 0 0
-1.00025 -1.25093 -0.228474 255 0 0
-1.67455 -0.278729 -0.159496 255 0 0
-1.67925 -0.263436 -0.158957 255 0 0
0.342567 -0.732277 3.01722 255 0 0
1.3011 -0.821059 2.77171 255 0 0
-0.925914 -0.676927 0.386386 255 0 0
-1.70132 0.0512624 0.258687 255 0 0
-0.012436 -1.08721 1.14141 255 0 0
1.28103 -1.17085 2.61791 255 0 0
-1.21465 -1.31335 1.0654 255 0 0
-0.537641 -1.2173 0.231461 255 0 0
-1.14079 -0.703475 1.07348 255 0 0
-1.55717 -0.0557129 0.629651 255 0 0
-1.23757 -1.21675 0.0552536 255 0 0
-1.11953 -0.822859 0.789019 255 0 0
-1.23192 0.121536 -0.3576 255 0 0
-0.516889 -0.328474 2.18913 255 0 0
-1.14136 -0.674636 0.253362 255 0 0
-0.556674 -1.14363 0.112296 255 0 0
-1.51529 -0.615451 0.189453 255 0 0
1.23452 -1.14327 2.05679 255 0 0
1.05647 -0.0714627 2.68165 255 0 0
-1.34128 -1.29443 0.170202 255 0 0
-0.999875 -0.687463 -0.107223 255 0 0
-1.6 -0.364929 -0.0868107 255 0 0
-0.0864288 -1.10323 -0.265473 255 0 0
0.562214 -0.694874 2.41885 255 0 0
-1.80362 -0.299462 -0.0303284 255 0 0
-1.37232 0.520568 1.22964 255 0 0
0.200268 -0.43977 2.23127 255 0 0
-1.00203 -1.24393 0.97465 255 0 0
-0.882371 -1.10896 0.978863 255 0 0
1.1958 -0.946342 2.53941 255 0 0
-0.333974 -0.441165 -0.626901 255 0 0
-0.314853 -0.10153 -0.586342 255 0 0
-0.301842 -1.14558 0.0902697 255 0 0
-0.439916 -1.04273 0.573163 255 0 0
-1.16639 -1.33095 1.07937 255 0 0
1.12573 -0.424275 2.46116 255 0 0
-0.918312 -0.931326 0.552218 255 0 0
-0.817218 -0.80259 0.699059 255 0 0
-1.23305 -1.0834 1.14719 255 0 0
-1.79365 -0.243709 -0.075458 255 0 0
-1.7885 -0.363128 -0.0249438 255 0 0
1.22885 -0.91851 2.6361 255 0 0
-0.941838 -0.715862 -0.0807617 255 0 0
-0.814838 -0.992025 0.920758 255 0 0
1.29358 -0.858507 2.63497 255 0 0
0.459831 0.476831 -0.186418 255 0 0
0.850126 0.233324 0.22531 255 0 0
0.652721 -0.586958 1.91359 255 0 0
-1.32104 0.136252 -0.289783 255 0 0
-0.100915 -1.2421 -0.605653 255 0 0
1.72008 -0.714498 1.98845 255 0 0
-0.426999 -1.16778 0.799532 255 0 0
0.940149 0.677224 0.186707 255 0 0
0.327238 -0.410874 -0.320389 255 0 0
-0.066554 -1.04115 -0.442461 255 0 0
1.42485 -0.774384 2.51108 255 0 0
0.572673 -0.938415 1.74655 255 0 0
-0.913042 -1.19673 -0.0651654 255 0 0
-1.50546 0.395108 0.772505 255 0 0
-1.51958 -0.604251 0.192151 255 0 0
-0.465802 -1.06656 0.537849 255 0 0
0.537981 -0.668659 2.67461 255 0 0
-0.708366 -1.19241 0.188937 255 0 0
0.677815 -0.566915 3.05344 255 0 0
-1.47615 -0.442994 0.135651 255 0 0
-0.580555 -1.16425 0.494036 255 0 0
-1.23521 0.756617 0.666457 255 0 0
-1.69825 -0.00712059 0.21382 255 0 0
-0.20122 -0.68646 1.49265 255 0 0
0.687864 -0.847589 2.01464 255 0 0
-0.366181 -1.22231 0.417965 255 0 0
-0.0420155 -0.3822 2.23362 255 0 0
-1.76507 -0.164596 0.430567 255 0 0
-0.820865 -0.931546 0.592305 255 0 0
-1.59372 0.381921 0.671791 255 0 0
-0.442557 -0.484714 0.372707 255 0 0
0.0803693 -0.755297 1.12394 255 0 0
-0.641213 -0.182744 0.512172 255 0 0
1.58202 -0.984265 1.93354 255 0 0
1.6014 -0.806349 1.94585 255 0 0
-0.701619 -0.0124202 -0.349664 255 0 0
-0.559818 -1.12268 0.228344 255 0 0
-0.346354 -0.882967 0.725808 255 0 0
-1.0594 -0.574929 -0.0887507 255 0 0
-0.446245 -0.772364 1.89241 255 0 0
-0.939449 -1.06647 -0.0188547 255 0 0
-0.389162 -1.0957 0.526499 255 0 0
-0.32401 -1.05389 0.821083 255 0 0
0.0391989 -0.69267 1.20054 255 0 0
-1.48715 -0.565243 0.236734 255 0 0
0.930754 0.0986944 0.195382 255 0 0
-0.722055 -0.914485 0.738221 255 0 0
1.56346 -1.1264 1.91913 255 0 0
-0.104125 -0.78448 -0.319138 255 0 0
-0.98203 -0.949391 0.49504 255 0 0
0.818857 0.259686 0.0729839 255 0 0
-1.02035 -1.11281 0.129492 255 0 0
-1.42135 -0.623121 0.150317 255 0 0
-0.761583 -0.568885 0.843543 255 0 0
-1.63669 -0.36186 -0.0613587 255 0 0
-0.540162 0.418303 2.49227 255 0 0
-1.48151 -0.633589 0.207637 255 0 0
-0.54259 -0.345204 0.317951 255 0 0
0.94774 0.705413 -0.113744 255 0 0
-0.744071 -0.562079 0.82782 255 0 0
-0.0811103 -0.697491 1.31212 255 0 0
-0.133035 -0.958727 -0.417433 255 0 0
-0.740737 -0.982807 0.41215 255 0 0
-1.16159 -1.24845 0.0119899 255 0 0
1.25766 -1.08263 2.27855 255 0 0
-1.81328 -0.286821 -0.0343893 255 0 0
1.09947 -0.906087 2.15587 255 0 0
-0.801106 -0.687442 0.333708 255 0 0
-0.737139 -0.150375 0.611844 255 0 0
-0.842475 -1.33038 -0.0913419 255 0 0
-0.860879 -0.924205 0.567564 255 0 0
-0.996723 -1.11189 0.115028 255 0 0
-0.837922 -1.24208 -0.0862367 255 0 0
-0.437967 -0.810767 0.661193 255 0 0
0.45344 -0.907977 1.67921 255 0 0
-0.882684 -1.20245 -0.0277674 255 0 0
-0.180077 -1.24613 -0.565993 255 0 0
-0.986131 -0.648292 0.817828 255 0 0
-1.08601 -0.984318 0.83245 255 0 0
-1.0194 0.0575236 -0.506381 255 0 0
-0.374155 -1.07604 0.13117 255 0 0
1.26357 -0.799864 2.75243 255 0 0
-0.298141 -0.163321 -0.544117 255 0 0
-1.06263 -1.22909 0.946206 255 0 0
-1.16133 -0.670964 0.31386 255 0 0
-0.760565 -0.203121 0.632038 255 0 0
1.22033 -0.882876 2.45027 255 0 0
-0.923091 -0.703569 -0.10486 255 0 0
1.23867 -1.24116 2.27671 255 0 0
-1.70334 -0.278587 0.212215 255 0 0
-0.641368 -0.16777 0.434005 255 0 0
-1.14136 -1.20284 0.910886 255 0 0
-1.54432 0.195807 0.133867 255 0 0
-0.642872 -1.24835 0.469081 255 0 0
-0.819651 -0.956661 0.470805 255 0 0
0.878243 -0.263379 2.67566 255 0 0
-0.320524 -0.68411 1.51265 255 0 0
-0.640901 -1.14537 0.13302 255 0 0
-1.20796 -0.258527 0.440279 255 0 0
1.41008 -0.139228 2.54347 255 0 0
-0.0455719 -0.983092 -0.364292 255 0 0
-0.595736 -1.28199 0.609438 255 0 0
-0.463596 0.956951 2.43666 255 0 0
-1.38731 -0.452554 0.0852091 255 0 0
-0.655052 -0.358938 -0.480525 255 0 0
1.68394 -0.902432 1.99151 255 0 0
-1.23644 0.737516 0.666634 255 0 0
-0.621415 -0.875699 0.113305 255 0 0
-0.31425 -0.987806 0.803337 255 0 0
-1.17832 -0.544337 0.531023 255 0 0
-0.741813 -1.14471 0.0734194 255 0 0
-0.57848 -0.925408 0.248066 255 0 0
1.70325 -0.771219 2.27916 255 0 0
-1.6055 0.410027 0.731893 255 0 0
-0.340449 -0.380234 -0.620559 255 0 0
-0.560257 -1.12371 0.0886589 255 0 0
-0.526123 0.358752 2.48604 255 0 0
-0.317452 -0.658296 0.546166 255 0 0
-0.379192 -0.982818 0.536002 255 0 0
0.836087 0.595304 -0.227617 255 0 0
-0.394589 1.02811 1.92437 255 0 0
-0.100856 -0.904507 -0.591837 255 0 0
-0.754317 -0.724245 0.428814 255 0 0
-0.474438 0.79272 2.16995 255 0 0
0.696864 -0.343809 -0.330906 255 0 0
-1.14073 -0.724634 1.09161 255 0 0
0.737637 -0.823051 2.05107 255 0 0
0.971542 0.218087 0.205953 255 0 0
1.86255 -1.32113 2.13278 255 0 0
-0.313546 -0.981793 0.791452 255 0 0
-1.77222 -0.493794 0.236094 255 0 0
1.39364 -1.3876 2.72534 255 0 0
-1.53823 -0.602626 0.170814 255 0 0
-1.32186 -0.343546 1.21241 255 0 0
-1.53809 0.396003 0.137486 255 0 0
1.17194 -0.899424 2.20131 255 0 0
-1.06551 -0.904755 1.01924 255 0 0
-0.782204 -0.937792 0.591144 255 0 0
-0.161833 -0.717753 -0.445492 255 0 0
1.25762 -1.031 2.10936 255 0 0
-1.44497 -0.286269 -0.215092 255 0 0
-0.660936 -0.170827 0.416626 255 0 0
-0.902544 -1.30932 -0.0866997 255 0 0
-1.76843 -0.244851 -0.0937895 255 0 0
-0.709892 -1.24596 0.420867 255 0 0
-0.926478 -1.14598 -0.0695444 255 0 0
0.214536 -0.691477 1.2765 255 0 0
1.05733 -0.266859 2.71337 255 0 0
-1.11855 -1.16047 0.0676059 255 0 0
-0.332698 -0.930776 0.69379 255 0 0
-0.402945 -1.04239 0.690681 255 0 0
-0.70312 0.9806 1.59395 255 0 0
0.694953 -0.701125 2.05746 255 0 0
-0.874274 -0.402683 2.07595 255 0 0
-1.06662 -1.00359 0.885127 255 0 0
0.818853 -0.262774 0.233198 255 0 0
-0.457893 -1.26483 0.497338 255 0 0
-1.06053 -0.981362 1.15242 255 0 0
1.36028 -0.700578 2.61205 255 0 0
-0.745079 0.0954388 -0.694399 255 0 0
-0.326374 -0.978843 0.760328 255 0 0
-0.282584 -0.447641 -0.653625 255 0 0
1.29888 -1.12803 2.53096 255 0 0
-0.415681 -1.04561 0.536141 255 0 0
-1.64019 -0.342442 -0.0662579 255 0 0
-0.781474 0.0155064 2.17394 255 0 0
-0.336591 -0.724066 0.529212 255 0 0
-0.960761 -0.443905 -0.147096 255 0 0
0.552308 0.193942 -0.196161 255 0 0
-1.3643 -0.662977 -0.0111341 255 0 0
-0.955176 -0.893379 0.957868 255 0 0
-0.50528 -0.446013 0.766144 255 0 0
0.602306 -0.696997 2.40872 255 0 0
1.16538 -0.60539 2.39884 255 0 0
0.798884 -0.717951 2.97279 255 0 0
0.812991 -0.257662 2.77079 255 0 0
-0.887465 -1.23007 1.18681 255 0 0
-1.17345 -1.23946 0.902457 255 0 0
-1.06323 -1.22224 -0.168054 255 0 0
-0.580195 -1.18225 0.478154 255 0 0
-0.0412553 -0.697015 1.29208 255 0 0
0.32082 -0.697695 3.03407 255 0 0
-1.59481 0.375166 0.658894 255 0 0
-0.778063 -0.258037 0.677927 255 0 0
-0.068871 -0.999903 -0.426023 255 0 0
-0.102009 -1.18215 -0.208159 255 0 0
-0.554058 0.181713 2.48325 255 0 0
1.25725 -1.17532 2.06265 255 0 0
0.87533 -0.0210127 -0.272887 255 0 0
-0.121005 -1.35356 1.05847 255 0 0
-0.714658 -0.264011 1.95147 255 0 0
-0.339365 -0.749862 0.651045 255 0 0
1.28211 -1.02208 2.10834 255 0 0
-0.549594 -0.209039 0.613744 255 0 0
1.08092 -0.944807 2.1415 255 0 0
-0.795439 0.0582154 2.06931 255 0 0
-1.32393 -0.310513 0.309756 255 0 0
-0.62013 -0.963342 1.61247 255 0 0
-0.10317 -0.843091 1.22955 255 0 0
-0.283323 -1.04854 0.790998 255 0 0
-1.19859 -1.22546 0.0157923 255 0 0
-0.781112 0.0579974 2.07575 255 0 0
-1.0305 -0.0272567 0.86912 255 0 0
0.510253 0.188917 -0.176444 255 0 0
-0.365615 -0.742782 0.540131 255 0 0
-0.0808319 -0.688563 1.45251 255 0 0
1.21983 -0.843126 2.44091 255 0 0
-0.41996 -1.04305 0.553621 255 0 0
0.210028 -0.824117 1.57443 255 0 0
-0.423804 -1.02416 0.572548 255 0 0
-1.40256 -0.504913 0.0895939 255 0 0
-1.14306 0.55943 0.458244 255 0 0
0.860104 -0.825429 2.38182 255 0 0
0.63159 -0.863193 1.88686 255 0 0
-1.12629 -1.16743 0.801858 255 0 0
-0.100988 -0.697184 1.41275 255 0 0
1.19765 -0.924647 2.23239 255 0 0
-1.3834 -0.659675 0.0733732 255 0 0
-0.2217 -0.523074 -0.539095 255 0 0
-1.17752 -1.00318 0.786044 255 0 0
0.958084 -0.800974 2.33378 255 0 0
-0.346739 -0.372207 -0.614319 255 0 0
0.842276 0.357191 0.252904 255 0 0
-0.727798 -0.0105135 -0.334347 255 0 0
-0.278116 -0.615797 0.585846 255 0 0
-1.0529 -1.03562 1.1666 255 0 0
-0.613898 0.335514 2.40536 255 0 0
-0.826923 -1.22895 0.707059 255 0 0
-0.968146 -0.00963397 -0.255198 255 0 0
0.557426 0.175318 -0.209646 255 0 0
-0.827637 -1.269 0.768505 255 0 0
-1.36364 -0.525199 0.455802 255 0 0
-0.461345 -0.724556 0.333343 255 0 0
-1.65087 0.588742 0.161576 255 0 0
-1.48305 -0.624908 0.214215 255 0 0
1.51973 -0.780048 2.43282 255 0 0
-0.455421 -0.520113 0.332506 255 0 0
-1.28391 0.0170555 0.851392 255 0 0
1.36395 -0.201118 2.5668 255 0 0
-1.14166 -0.669855 0.292085 255 0 0
-1.29618 -0.655507 0.214824 255 0 0
0.455332 -0.997943 1.66445 255 0 0
-0.360928 -1.18459 0.465113 255 0 0
0.88247 0.641746 -0.429297 255 0 0
-0.94005 -0.952106 0.476738 255 0 0
0.957323 0.117252 0.171692 255 0 0
-0.297499 -0.841218 0.657765 255 0 0
-0.958005 -1.06145 1.23096 255 0 0
-0.481402 -0.626274 0.28307 255 0 0
-0.246649 -0.646848 0.62658 255 0 0
-0.784722 -1.02836 0.0340531 255 0 0
1.17978 -0.184277 2.39868 255 0 0
-1.06015 -1.00395 0.85264 255 0 0
-0.322029 -0.742925 2.01965 255 0 0
1.26109 -0.165374 2.52844 255 0 0
0.997146 -0.0263908 2.70989 255 0 0
-0.142249 -1.20676 -0.630816 255 0 0
-0.942431 -0.958721 0.492338 255 0 0
1.1922 -0.318186 2.53767 255 0 0
-0.545498 -1.02465 0.289377 255 0 0
-0.546147 -0.241128 0.635157 255 0 0
-1.64048 -0.541948 0.334208 255 0 0
-1.62741 -0.18269 0.494495 255 0 0
-0.0641338 -0.879229 -0.346583 255 0 0
0.798488 -0.0640783 -0.386478 255 0 0
-1.23309 0.694234 0.936257 255 0 0
-0.452466 -1.00909 0.624047 255 0 0
0.850991 0.540085 -0.268377 255 0 0
-0.962108 -0.74366 0.37212 255 0 0
1.13962 -0.265543 2.77308 255 0 0
-1.24301 -0.444252 0.0103933 255 0 0
-0.360194 -0.604347 2.1926 255 0 0
-0.803339 -0.347496 1.93359 255 0 0
-0.338384 -0.700319 0.571071 255 0 0
0.138868 -0.689527 1.27273 255 0 0
-0.662653 -0.204861 0.376774 255 0 0
-0.752235 -0.303119 2.00401 255 0 0
-0.554035 0.0800176 2.46875 255 0 0
0.837072 -0.263604 -0.42588 255 0 0
-1.20249 0.716055 0.693333 255 0 0
-1.34124 0.390239 0.852178 255 0 0
-0.528928 -0.401575 2.51577 255 0 0
-0.701132 -0.157727 0.513224 255 0 0
-1.67682 0.138343 0.159065 255 0 0
-1.04107 -0.548546 1.17251 255 0 0
-0.861444 -0.940185 0.572756 255 0 0
-0.45704 -1.24802 0.788247 255 0 0
-0.121599 -0.690101 1.63232 255 0 0
-0.982554 -1.26383 -0.128176 255 0 0
-1.06396 -0.464279 -0.0925383 255 0 0
-0.560913 -0.228727 0.380047 255 0 0
-0.826185 -0.0129772 -0.336889 255 0 0
-0.722783 -0.922262 1.67397 255 0 0
-0.55919 -0.499309 2.33211 255 0 0
0.928985 0.627975 -0.470148 255 0 0
-0.994567 0.0407084 -0.519503 255 0 0
-0.795162 -1.06216 -0.00197622 255 0 0
-1.10274 -0.622875 0.774448 255 0 0
-0.550269 -0.185823 0.440241 255 0 0
1.2359 -0.923854 2.2565 255 0 0
-0.71816 0.95518 1.68932 255 0 0
-0.499077 -1.14125 0.504782 255 0 0
-0.0959081 -0.842843 1.1995 255 0 0
-0.67779 -0.650699 1.67843 255 0 0
-0.526902 0.39794 2.49069 255 0 0
-0.69837 -0.292042 2.03524 255 0 0
-0.360282 -1.1639 0.452179 255 0 0
-1.434 -0.27214 -0.231214 255 0 0
-0.926561 -1.02546 1.29364 255 0 0
-0.184512 -0.923563 1.28822 255 0 0
-1.31391 -0.381458 1.22544 255 0 0
-1.25933 -0.672555 0.268799 255 0 0
0.465965 -1.04642 1.67725 255 0 0
-1.38343 -0.524637 0.192926 255 0 0
0.538966 0.176055 -0.18842 255 0 0
-1.07922 -0.666811 0.21239 255 0 0
1.13304 -0.894338 2.39372 255 0 0
-0.0272948 -0.860296 -0.29925 255 0 0
0.439259 -0.685437 2.55294 255 0 0
-0.917886 -0.950761 0.474231 255 0 0
-1.66272 -0.246084 -0.170277 255 0 0
1.48456 -1.30201 2.71955 255 0 0
1.81511 -0.764665 2.21229 255 0 0
0.75689 0.916382 -0.346604 255 0 0
-0.612368 -0.214428 0.405581 255 0 0
-0.161864 -0.68442 -0.60397 255 0 0
-0.146246 -0.739447 -0.698857 255 0 0
-0.400523 -0.822453 0.394847 255 0 0
0.542605 -0.343539 3.19963 255 0 0
-0.920404 -0.959021 0.472754 255 0 0
-1.29315 0.141129 -0.318452 255 0 0
-1.4214 -0.523012 0.194063 255 0 0
-0.624119 0.477563 2.41933 255 0 0
0.855019 0.495776 -0.453693 255 0 0
0.472064 -0.544813 -0.539832 255 0 0
-0.791595 -0.535946 1.1977 255 0 0
-1.34193 0.55565 0.791803 255 0 0
-0.300257 -0.0630971 -0.565135 255 0 0
-0.720606 -0.921271 0.532667 255 0 0
-1.17546 -1.14698 0.0505013 255 0 0
-1.14194 -0.50339 -0.0640023 255 0 0
-0.983638 -0.671278 -0.133921 255 0 0
-0.95314 -1.11999 0.0736024 255 0 0
-0.0814326 -1.18384 -0.411211 255 0 0
-0.646907 -0.423215 0.5463 255 0 0
-0.440611 -1.14498 0.114199 255 0 0
0.299539 -0.686692 2.91178 255 0 0
-0.0802139 -1.16229 -0.420496 255 0 0
-0.715886 -1.27217 0.484824 255 0 0
0.971032 -0.860619 2.37832 255 0 0
0.264473 -0.977632 1.59302 255 0 0
-0.547922 -1.24384 0.493285 255 0 0
-1.4 -0.543385 0.431702 255 0 0
-1.09813 -1.20342 0.854717 255 0 0
-0.178654 -0.877889 -0.55666 255 0 0
0.799142 0.0355347 0.236492 255 0 0
-1.516 -0.636565 0.171437 255 0 0
-0.777257 -0.282174 1.95558 255 0 0
-0.323571 -0.829421 0.703678 255 0 0
-0.642067 -0.403832 0.53246 255 0 0
0.840079 -0.685421 2.95193 255 0 0
-0.221556 -0.438911 -0.558644 255 0 0
-1.77716 -0.12813 0.389669 255 0 0
-1.54681 -0.203407 0.151771 255 0 0
-1.0608 -1.04208 0.870297 255 0 0
-0.924371 0.168108 -0.55206 255 0 0
0.700551 -0.243406 -0.36884 255 0 0
-0.823689 -1.24504 0.731052 255 0 0
-1.08148 -0.664503 0.273994 255 0 0
0.977577 0.637287 -0.426947 255 0 0
-0.974956 -0.737883 0.396252 255 0 0
-1.07266 -0.522543 -0.103576 255 0 0
0.0851228 -0.784682 1.10102 255 0 0
-0.630212 -0.808523 0.00524765 255 0 0
-0.115753 -1.14237 -0.422922 255 0 0
-1.23986 -1.20608 0.0686398 255 0 0
-1.14121 -1.02462 0.795209 255 0 0
-0.982347 -1.26754 -0.0691862 255 0 0
1.23604 -1.06136 2.05572 255 0 0
-0.661264 -1.2229 0.132693 255 0 0
1.22723 -0.563478 2.60716 255 0 0
-1.25308 -1.19694 0.0415395 255 0 0
-1.17592 -1.20163 0.902325 255 0 0
1.6959 -0.722003 1.91246 255 0 0
-1.33423 -0.443033 1.13104 255 0 0
-1.4199 -0.505562 0.209877 255 0 0
-1.3423 -0.290263 -0.266598 255 0 0
-1.41106 -0.575135 0.223596 255 0 0
-0.465847 -0.49219 0.30224 255 0 0
-0.436612 -0.800272 0.478056 255 0 0
-0.857916 -1.24755 0.653306 255 0 0
-1.33547 -0.369597 0.34306 255 0 0
0.854087 0.476879 0.212846 255 0 0
1.02021 -0.283488 2.79599 255 0 0
-0.338542 -0.762387 0.650068 255 0 0
1.73893 -0.722049 2.07444 255 0 0
-0.140509 -0.418422 2.46013 255 0 0
-0.895328 -1.09571 0.104494 255 0 0
-0.434677 -0.988685 0.685142 255 0 0
-0.719803 -0.156757 0.51282 255 0 0
-1.21328 -0.357887 0.815099 255 0 0
-0.182564 -1.10672 -0.0429107 255 0 0
1.40867 -1.15197 2.54521 255 0 0
0.527499 -0.613041 2.42786 255 0 0
-1.16793 -0.468077 0.467862 255 0 0
1.39257 -0.849109 2.06786 255 0 0
-0.0450958 -0.843089 1.1872 255 0 0
-1.72537 -0.275999 -0.137837 255 0 0
-1.35995 -0.463645 0.0348536 255 0 0
-0.722195 -0.707439 0.371738 255 0 0
-0.226799 -0.364851 -0.585536 255 0 0
-0.126097 -1.23638 -0.437817 255 0 0
-0.880005 -0.380049 2.06092 255 0 0
-0.899565 -0.342232 -0.16432 255 0 0
-0.859509 -1.19939 -0.0254285 255 0 0
-0.981622 -0.660308 0.251853 255 0 0
-0.558357 -0.201279 0.573583 255 0 0
-0.823251 -0.368924 2.03345 255 0 0
-1.08291 -1.14933 0.153249 255 0 0
-1.22636 -0.923365 0.716593 255 0 0
-1.17967 -1.24285 0.931808 255 0 0
-1.0209 -0.66561 0.21319 255 0 0
-0.94008 -1.18192 -0.0286338 255 0 0
-1.1072 -1.15097 0.136646 255 0 0
-1.18909 -1.23378 0.0444477 255 0 0
-0.349596 -0.783865 0.521626 255 0 0
-0.533373 -0.376601 0.328663 255 0 0
1.57632 -1.1788 1.88995 255 0 0
1.11407 -0.877877 2.17099 255 0 0
-0.185891 -1.04062 1.28828 255 0 0
-0.322718 -0.963895 0.694517 255 0 0
0.631166 -0.61503 2.39245 255 0 0
-0.685106 -0.00406896 2.27653 255 0 0
-1.16468 -1.14525 0.0338435 255 0 0
-1.65873 0.117897 0.192287 255 0 0
-0.0198119 -0.862937 1.15513 255 0 0
-0.58326 -0.208576 0.397148 255 0 0
-0.539321 0.2348 2.45716 255 0 0
1.2756 -0.96617 2.21143 255 0 0
-0.857202 0.0183616 -0.341835 255 0 0
-0.540417 -1.2397 0.635878 255 0 0
-0.575607 -1.0309 0.217145 255 0 0
0.240549 -1.06205 1.25083 255 0 0
-0.340699 -0.684945 1.67273 255 0 0
-1.32024 -0.0633742 1.21304 255 0 0
-0.0847888 -1.2035 -0.227745 255 0 0
-0.541958 0.334845 2.45119 255 0 0
0.0397525 -0.942951 1.12924 255 0 0
-1.22637 -0.469642 1.30818 255 0 0
-0.945704 0.0744464 -0.573674 255 0 0
1.53412 -0.773633 2.44561 255 0 0
0.746643 0.926426 -0.249493 255 0 0
-1.11461 -1.20095 0.233815 255 0 0
-1.05813 -1.00354 1.1667 255 0 0
0.57792 -0.598318 2.36703 255 0 0
-0.981348 -0.422416 -0.130966 255 0 0
-0.840012 -0.682087 -0.0311035 255 0 0
-0.839621 -0.929264 0.945726 255 0 0
-0.514601 -1.08971 0.340256 255 0 0
-0.960269 -0.659669 0.312094 255 0 0
-0.337062 -0.761093 0.545345 255 0 0
-0.859707 -0.941423 0.5529 255 0 0
-0.377146 -1.02361 0.515571 255 0 0
1.31421 -1.35147 2.63814 255 0 0
-0.726151 -0.469662 -0.100863 255 0 0
1.31016 -0.875145 2.70454 255 0 0
-1.3383 -0.402952 1.19256 255 0 0
-0.969015 -0.404247 -0.135944 255 0 0
0.143882 -0.688366 2.85529 255 0 0
-1.1393 -1.26398 0.807403 255 0 0
-1.626 -0.586212 0.331682 255 0 0
-1.35632 -0.310978 0.279257 255 0 0
-1.52124 -0.363991 -0.146073 255 0 0
0.318739 -0.686323 2.77336 255 0 0
1.2624 -0.644481 1.87129 255 0 0
-1.14791 0.132665 -0.433165 255 0 0
-0.507674 0.879167 2.45684 255 0 0
-0.770939 -1.16641 0.702329 255 0 0
-0.000841397 -0.704853 1.21263 255 0 0
-1.03966 -0.659142 0.33337 255 0 0
-0.0609516 -0.688766 1.3327 255 0 0
-1.41307 -0.547325 0.227844 255 0 0
-0.0462051 -0.881974 -0.275823 255 0 0
-0.521323 -0.879179 0.685195 255 0 0
-1.20715 -0.925934 0.756364 255 0 0
-1.14242 -1.18854 0.133684 255 0 0
1.29901 -0.164728 2.51514 255 0 0
-0.727418 -0.739482 0.41045 255 0 0
-1.41617 -0.582925 0.211011 255 0 0
-0.0495944 -0.944365 -0.359809 255 0 0
0.552083 0.575024 -0.215809 255 0 0
0.633985 -0.659171 1.95311 255 0 0
-1.51496 0.467148 0.666265 255 0 0
1.28357 -0.848632 2.63491 255 0 0
-1.78119 -0.0494669 0.350057 255 0 0
0.849719 0.413498 -0.41483 255 0 0
1.64541 -1.02716 2.03155 255 0 0
-1.72657 -0.225946 0.272855 255 0 0
1.23611 -0.26551 2.47254 255 0 0
-0.0608273 -1.19995 -0.418947 255 0 0
0.807632 -0.312496 3.01973 255 0 0
-1.07727 -1.11924 0.154276 255 0 0
-1.54007 0.636831 0.151206 255 0 0
0.120507 -0.716668 1.1886 255 0 0
-1.16592 -1.12812 0.0180106 255 0 0
-1.4418 -1.37017 0.429101 255 0 0
0.150749 -0.79013 1.1219 255 0 0
-1.27298 -0.324276 1.26909 255 0 0
-1.04724 -1.14802 -0.0706441 255 0 0
-0.576633 -1.14106 0.08584 255 0 0
0.302109 -1.04193 1.33094 255 0 0
-0.308165 -0.903746 0.713989 255 0 0
0.846667 0.489782 0.23641 255 0 0
-1.19901 -1.18963 0.154547 255 0 0
1.16658 -1.05244 2.47896 255 0 0
0.304524 -0.495242 2.25974 255 0 0
-0.747459 -0.694332 0.0424077 255 0 0
-0.482116 -1.14266 0.131694 255 0 0
-1.17532 -1.13182 -0.00123092 255 0 0
-0.423333 -0.563593 0.333139 255 0 0
0.373386 -1.28208 -1.38118 255 0 0
-0.495955 -1.03737 0.512454 255 0 0
-0.660281 -1.20207 0.485932 255 0 0
1.31639 -1.01786 2.18465 255 0 0
1.53418 -1.25526 2.46628 255 0 0
-0.267261 -1.10391 1.36394 255 0 0
-0.861796 -0.659714 0.292388 255 0 0
0.280276 -0.685529 2.69273 255 0 0
-0.456498 -0.988101 0.579003 255 0 0
0.059011 -0.700869 1.19234 255 0 0
0.383561 -0.92922 1.53135 255 0 0
-0.606698 -1.14705 0.195364 255 0 0
-0.920725 -1.30612 -0.0864687 255 0 0
0.179674 -0.689406 2.86826 255 0 0
0.411511 -0.969805 1.5573 255 0 0
-0.980661 -1.14539 0.11356 255 0 0
-0.611261 -0.693996 0.857231 255 0 0
-0.221981 -0.564522 -0.5287 255 0 0
-1.14573 -1.23091 0.0610082 255 0 0
1.26374 -1.08577 2.09607 255 0 0
0.877718 -0.848175 2.38098 255 0 0
-1.32185 -0.223116 1.1926 255 0 0
-0.443449 -0.677487 0.298143 255 0 0
-0.063287 -0.946255 -0.387599 255 0 0
-1.55689 0.394915 0.73223 255 0 0
0.739143 -0.625093 2.27215 255 0 0
-1.13749 -0.863066 0.829731 255 0 0
-1.11674 0.0995608 -0.441046 255 0 0
1.1602 -0.938829 2.43999 255 0 0
0.81523 -0.582918 -0.359853 255 0 0
-1.34506 -0.545259 0.458141 255 0 0
-0.326286 -0.91032 0.749731 255 0 0
-0.102879 -1.18546 -0.733656 255 0 0
-1.05122 -1.12312 -0.0923063 255 0 0
1.13538 -0.904558 2.33899 255 0 0
-0.280876 -0.684964 1.51247 255 0 0
-1.158 -0.668233 0.292624 255 0 0
-0.199388 -1.17998 -0.633223 255 0 0
-0.742233 -0.766372 0.229638 255 0 0
-1.17269 -0.551577 0.550508 255 0 0
-0.980598 -0.202733 -0.171063 255 0 0
-0.940341 -0.659447 0.373339 255 0 0
-0.879867 0.0165982 -0.589489 255 0 0
-0.847166 0.0704788 2.09413 255 0 0
-0.534654 -0.400052 0.307808 255 0 0
-1.37749 0.695187 1.2318 255 0 0
1.39185 -0.79593 2.17436 255 0 0
1.59271 -1.02886 1.95235 255 0 0
-0.483028 -0.60377 0.666959 255 0 0
-1.57354 0.3558 0.588143 255 0 0
0.760644 0.261214 0.0322899 255 0 0
1.25589 -1.12314 2.27765 255 0 0
-0.712993 -0.882703 0.553621 255 0 0
-1.0998 -0.499473 0.436279 255 0 0
-0.148831 -0.724952 -0.598262 255 0 0
-0.358701 -0.800684 0.651848 255 0 0
1.252 -0.69883 2.66113 255 0 0
-1.23452 -0.703517 0.649076 255 0 0
-1.40005 -0.376194 -0.220801 255 0 0
-0.691865 -0.403654 0.56574 255 0 0
-1.08412 0.590215 0.574831 255 0 0
-1.18041 -0.664795 0.267669 255 0 0
0.886301 -0.143964 0.217815 255 0 0
-0.812866 -1.00031 0.0403766 255 0 0
-0.757744 -0.921965 -0.003673 255 0 0
-1.37829 -0.660312 0.194692 255 0 0
-0.282604 -0.941177 0.765429 255 0 0
-0.0853472 -1.18322 -0.227455 255 0 0
-0.340035 -0.670673 1.65286 255 0 0
0.934488 -0.28086 2.86406 255 0 0
-0.561207 -0.666169 1.87174 255 0 0
-0.678409 -1.21713 0.134582 255 0 0
-1.7294 -0.367473 -0.0755321 255 0 0
-1.08498 -0.826984 0.799668 255 0 0
-0.404703 -1.03857 0.679758 255 0 0
-1.52137 -0.326931 -0.15274 255 0 0
-0.681174 -0.800664 0.169703 255 0 0
-1.01978 -0.651202 0.375341 255 0 0
-0.736963 0.0352644 2.23087 255 0 0
-1.01683 -1.24198 1.07076 255 0 0
-0.665194 -0.0270466 -0.426866 255 0 0
-0.540273 -0.0238451 2.3942 255 0 0
-1.4119 0.0789018 0.734969 255 0 0
-0.784728 -1.15203 0.00573179 255 0 0
-0.122892 -1.00294 -0.429261 255 0 0
-1.11321 0.541441 0.510171 255 0 0
-1.3738 0.455744 1.16034 255 0 0
-0.328804 -0.240168 -0.972604 255 0 0
-0.304221 -0.030798 -0.529804 255 0 0
1.17916 -0.965455 2.46865 255 0 0
-0.839935 -0.43468 2.06978 255 0 0
-0.795453 -1.21802 0.426002 255 0 0
1.46381 -1.34571 2.65195 255 0 0
-1.49966 -0.618968 0.172759 255 0 0
-0.696701 -0.171569 0.664319 255 0 0
-0.968008 -0.426039 -0.136455 255 0 0
-1.09552 -1.18186 0.0723463 255 0 0
-1.0336 -1.2581 -0.180852 255 0 0
-0.62171 -1.16301 0.093855 255 0 0
0.479128 -1.02441 1.69431 255 0 0
1.01532 -0.0883527 2.76067 255 0 0
-1.10945 0.38499 0.659266 255 0 0
-0.904896 -1.2047 1.17353 255 0 0
-0.041958 -0.762388 -0.284913 255 0 0
-0.101984 -1.14488 -0.210111 255 0 0
-1.54725 -0.56322 0.156154 255 0 0
-0.579385 0.237121 2.41297 255 0 0
1.28095 -1.12823 2.53725 255 0 0
-0.0938303 -0.883522 -0.324549 255 0 0
-0.355871 -0.74558 0.545661 255 0 0
0.57699 -0.683963 1.85087 255 0 0
0.0210078 -0.692006 1.21661 255 0 0
-1.64081 -0.162843 0.510319 255 0 0
0.0279054 -1.06029 1.12159 255 0 0
-0.604853 -0.369992 -0.496608 255 0 0
-0.473828 -0.678847 -0.623788 255 0 0
-0.990237 0.59468 0.821624 255 0 0
-0.749726 -0.228754 2.1037 255 0 0
-1.0708 -0.045879 0.782467 255 0 0
-1.48018 -0.321761 -0.188379 255 0 0
-0.854608 -0.0231407 2.08888 255 0 0
-0.0972134 -0.87138 -0.386826 255 0 0
-1.67758 0.0188762 0.23233 255 0 0
1.16487 -0.754181 2.72486 255 0 0
-0.739437 -0.18501 0.571847 255 0 0
-1.67435 0.374831 0.232593 255 0 0
-1.32321 -0.28391 1.21282 255 0 0
-1.34625 0.98706 0.682972 255 0 0
-1.10383 0.56179 0.498019 255 0 0
0.782866 0.0377208 0.23995 255 0 0
-1.66035 0.136026 0.152196 255 0 0
-0.841683 -0.957499 0.469329 255 0 0
0.300858 -0.684505 2.71326 255 0 0
-0.273991 -0.746195 -0.615016 255 0 0
-1.62185 0.587429 0.446245 255 0 0
1.03752 -0.475689 -0.371335 255 0 0
-0.921441 -1.18404 -0.0473945 255 0 0
-1.02271 -1.10344 0.167388 255 0 0
0.546105 -0.831108 1.70231 255 0 0
-0.521553 -0.958556 1.43255 255 0 0
-0.624174 -0.424276 0.527672 255 0 0
-0.380145 -0.16772 -0.938667 255 0 0
-0.0209341 -0.689605 1.51223 255 0 0
-0.519721 -0.67381 -0.594709 255 0 0
0.374385 -0.966444 1.53767 255 0 0
-1.0752 -1.24114 1.07907 255 0 0
1.69285 -1.11413 2.0877 255 0 0
-0.290603 -0.660961 0.560846 255 0 0
-0.304683 -0.885788 0.73139 255 0 0
-0.320615 -0.482914 -0.630344 255 0 0
-1.71046 0.611754 0.346621 255 0 0
-0.0798241 -0.70627 1.25367 255 0 0
-1.34027 0.0753215 1.22646 255 0 0
0.360848 -0.755236 2.93412 255 0 0
-1.70316 -0.426419 0.16831 255 0 0
1.11815 -0.841322 2.55034 255 0 0
-0.781015 -0.940017 0.532424 255 0 0
-0.453901 -0.68526 0.312198 255 0 0
-1.26454 -0.426193 0.0301676 255 0 0
-1.10087 0.572171 0.492495 255 0 0
-1.18027 -1.22105 0.913585 255 0 0
-1.10145 -1.22407 0.872309 255 0 0
-1.44062 -0.483035 0.173259 255 0 0
-0.261263 -0.608886 0.593695 255 0 0
0.462533 -0.330611 -0.799229 255 0 0
-0.660045 -0.976465 0.0958047 255 0 0
-0.862861 -0.977937 0.43139 255 0 0
-0.000554432 -0.699086 1.49256 255 0 0
-0.181297 -0.662529 -0.649005 255 0 0
-0.479733 -0.016899 -0.541209 255 0 0
-1.14292 -1.22177 0.928283 255 0 0
-0.860952 -0.957405 0.471402 255 0 0
1.25015 -0.450716 2.58223 255 0 0
-1.4268 0.598666 0.154583 255 0 0
-0.443155 -0.484938 0.35282 255 0 0
-0.693888 -1.12956 0.48414 255 0 0
1.28915 -1.04318 2.09855 255 0 0
-0.831096 -0.768791 0.264445 255 0 0
1.29745 -0.12104 2.43476 255 0 0
1.2799 -0.145346 2.46292 255 0 0
-0.520597 0.0761325 2.43131 255 0 0
0.34052 -0.683617 2.61183 255 0 0
-1.21724 -1.2817 1.07347 255 0 0
-0.656469 -0.196409 0.513104 255 0 0
-1.17886 0.668722 0.846992 255 0 0
-0.740221 -1.20689 0.011461 255 0 0
-1.57973 0.385685 0.710084 255 0 0
-0.194397 -0.836569 -0.566605 255 0 0
-0.275242 -1.05855 0.746338 255 0 0
-0.602656 -0.207229 0.668712 255 0 0
-0.0986699 -0.915708 -0.49052 255 0 0
1.53659 -0.585826 1.92873 255 0 0
-0.579245 -1.12233 0.477896 255 0 0
-0.118368 -1.35348 1.07403 255 0 0
-0.0963034 -1.00267 -0.407823 255 0 0
-0.240825 -0.700256 1.51274 255 0 0
0.338839 -0.687296 3.05432 255 0 0
-0.0343609 -0.384074 1.85539 255 0 0
-0.303616 -0.46542 1.88471 255 0 0
0.500034 -0.696035 2.57218 255 0 0
1.30246 -0.122009 2.4655 255 0 0
-0.718506 -0.692428 0.306962 255 0 0
-1.36764 0.390417 0.316385 255 0 0
-1.22466 -0.388656 0.366721 255 0 0
-0.201767 -0.505103 -0.650445 255 0 0
1.41936 -1.20594 2.53992 255 0 0
0.380681 -0.693357 2.6554 255 0 0
0.921471 -0.382201 -0.447179 255 0 0
-1.21935 -1.22005 0.0882277 255 0 0
0.724627 -0.23181 -0.0111817 255 0 0
-0.540007 -0.459013 2.41166 255 0 0
-1.16004 -0.800783 1.06765 255 0 0
0.852846 0.477759 -0.410663 255 0 0
-1.10628 -0.674108 0.229721 255 0 0
-1.5596 -0.26232 0.153851 255 0 0
-0.0813452 -1.23188 -0.61508 255 0 0
-0.0795022 -0.983206 1.19343 255 0 0
-1.19144 -1.33489 1.08948 255 0 0
-0.831555 -0.97929 0.0603317 255 0 0
-0.700706 -0.0427693 2.19438 255 0 0
-0.61871 -1.18167 0.493465 255 0 0
0.875708 0.501531 -0.265541 255 0 0
-0.287385 -0.123182 -0.545306 255 0 0
-0.440644 -1.00454 0.592908 255 0 0
-0.52283 0.436155 2.48924 255 0 0
-1.52751 0.461847 0.637467 255 0 0
-1.67755 0.536881 0.428675 255 0 0
1.11651 -0.655752 2.42186 255 0 0
-1.40831 -0.656042 0.226273 255 0 0
0.643938 -0.638767 1.96665 255 0 0
-0.0954488 -0.984219 -0.347215 255 0 0
1.72001 -0.169486 2.39438 255 0 0
0.193802 -0.823492 1.1758 255 0 0
1.49365 -1.27906 2.72539 255 0 0
-0.211871 -0.95658 1.29933 255 0 0
-1.42139 -0.343338 -0.210306 255 0 0
-0.738352 -1.26234 0.4316 255 0 0
1.2274 -0.629939 2.05609 255 0 0
-1.43547 -0.638785 0.233628 255 0 0
-0.981519 -0.687422 -0.108987 255 0 0
-0.651774 -1.13283 0.15656 255 0 0
-0.599925 0.575897 2.42705 255 0 0
-0.445524 0.935067 2.46574 255 0 0
-0.176127 -0.741813 -0.708394 255 0 0
1.72115 -0.716861 2.05164 255 0 0
1.31301 -1.35241 2.64745 255 0 0
-0.142353 -0.777982 -0.680339 255 0 0
-1.07381 -1.20212 -0.189864 255 0 0
1.53857 -0.606724 2.57587 255 0 0
1.0991 -0.685808 2.37955 255 0 0
-1.14162 -0.745441 1.05621 255 0 0
-1.72032 -0.261651 0.229172 255 0 0
-0.260586 -0.92392 1.3337 255 0 0
-1.0616 -0.667773 0.232589 255 0 0
0.578845 -0.602012 2.39183 255 0 0
0.858074 0.155764 0.198408 255 0 0
0.139385 -0.40946 2.29127 255 0 0
-0.325411 -0.705545 0.577029 255 0 0
1.29866 -0.184049 2.53137 255 0 0
-0.94089 -0.403966 -0.113979 255 0 0
-0.565232 -0.187762 0.630536 255 0 0
0.818807 -0.706239 2.95181 255 0 0
-0.843582 -1.02351 0.0321415 255 0 0
-0.50489 -1.12513 0.505859 255 0 0
-1.03322 -1.18456 0.939153 255 0 0
-1.77805 0.569313 0.0697913 255 0 0
0.953846 0.699204 0.0963626 255 0 0
-1.37238 0.535705 1.22765 255 0 0
-0.307317 -0.742338 0.557856 255 0 0
-0.100774 -0.688756 1.49276 255 0 0
-0.780332 -0.36488 0.750242 255 0 0
-0.881306 -0.949029 0.493939 255 0 0
1.67576 -1.35716 2.51424 255 0 0
-0.588378 -0.624308 2.26797 255 0 0
-0.280193 -0.482193 -0.646317 255 0 0
-0.469246 -0.735813 0.302322 255 0 0
1.27892 -0.243678 2.49801 255 0 0
-0.206023 -0.48172 -0.544607 255 0 0
-1.11907 -0.922538 0.829421 255 0 0
-0.978054 0.554313 0.65311 255 0 0
-1.18354 -1.22313 0.0890105 255 0 0
-0.100416 -1.12374 -0.42477 255 0 0
-1.76787 0.498104 0.298608 255 0 0
-1.25846 -0.460918 0.036214 255 0 0
-0.589164 -0.152717 0.530654 255 0 0
0.416826 -0.917381 1.45219 255 0 0
-0.422428 -1.01885 0.787127 255 0 0
0.500237 -0.72577 3.14177 255 0 0
1.46358 -1.06399 1.81825 255 0 0
-0.100526 -0.702483 1.61274 255 0 0
-0.677069 -0.444136 0.567788 255 0 0
-0.855878 0.0614741 -0.618888 255 0 0
1.48124 -1.04325 1.85512 255 0 0
-1.22985 -1.06173 1.14206 255 0 0
-1.74544 0.00442838 0.32915 255 0 0
0.652609 -0.160126 3.50604 255 0 0
-0.490163 -0.467364 0.301585 255 0 0
-0.499499 -1.27107 0.828106 255 0 0
1.37107 -0.219248 2.63716 255 0 0
-0.243715 -1.07544 0.731418 255 0 0
1.19472 -1.26432 2.05976 255 0 0
0.891713 -0.195357 0.203675 255 0 0
-0.678696 -0.198231 0.413505 255 0 0
-1.11499 -1.14952 -0.138951 255 0 0
-1.03044 -0.713125 0.00777391 255 0 0
-0.287071 -0.163293 -0.543802 255 0 0
-0.803688 0.0378289 2.15172 255 0 0
1.59518 -1.18296 1.89023 255 0 0
-0.960277 -0.660543 0.392672 255 0 0
-0.780146 -0.924 0.0136402 255 0 0
1.42211 -0.75951 2.54917 255 0 0
-0.839311 -1.22993 0.709408 255 0 0
0.496256 -0.501723 -0.188809 255 0 0
-1.4067 -0.64937 0.227134 255 0 0
0.130201 -1.03914 1.09789 255 0 0
-1.11511 -1.24417 0.880027 255 0 0
0.853778 -0.18467 0.249024 255 0 0
1.25906 -1.03264 2.31002 255 0 0
-0.762765 -0.968023 0.400887 255 0 0
-0.883106 -1.16725 -0.021542 255 0 0
-0.915492 -0.0127063 -0.23908 255 0 0
1.16514 -0.298956 2.77741 255 0 0
-1.2176 -0.784266 0.691137 255 0 0
1.21736 -1.24502 2.27224 255 0 0
-1.06057 -0.695717 -0.0274516 255 0 0
-0.299122 -0.962131 0.731354 255 0 0
0.0122065 -0.945098 -0.294219 255 0 0
-0.662171 -1.178 0.460886 255 0 0
-1.73454 -0.22217 0.353807 255 0 0
-0.942241 -1.14297 0.0724187 255 0 0
-1.04036 -0.762752 1.29286 255 0 0
0.0243748 -0.692494 1.19614 255 0 0
-0.117958 -0.709482 1.25819 255 0 0
-0.541013 -1.06299 0.232541 255 0 0
-0.807683 0.0919722 -0.656198 255 0 0
0.959209 -0.824491 2.3748 255 0 0
1.33961 -0.750161 2.73282 255 0 0
-0.782579 -0.699966 0.408808 255 0 0
-1.04034 -0.649704 0.373144 255 0 0
1.47605 -0.683643 2.51254 255 0 0
-1.14226 -1.18669 0.912098 255 0 0
-1.40144 -0.522999 0.0915884 255 0 0
-0.579511 -0.182222 0.512575 255 0 0
1.23591 -0.917393 2.58409 255 0 0
0.337012 -0.540766 -0.0431119 255 0 0
-0.0898534 -1.22916 -0.442554 255 0 0
0.959252 -0.144761 2.77407 255 0 0
-1.16791 -1.24329 1.1004 255 0 0
0.752543 -0.742881 2.0783 255 0 0
-1.31903 0.455858 1.23338 255 0 0
-0.620344 -0.680439 1.81221 255 0 0
1.30276 -0.97182 2.11228 255 0 0
1.3056 -0.316306 2.72699 255 0 0
0.760466 -0.595939 0.175233 255 0 0
1.2385 -0.983573 2.27125 255 0 0
1.07964 -0.94359 2.35584 255 0 0
-1.08644 -1.18496 0.0729351 255 0 0
-0.917933 -0.421882 -0.12067 255 0 0
-0.749979 -0.71245 0.711182 255 0 0
1.16497 -0.202403 2.4114 255 0 0
1.13051 -0.412328 2.45539 255 0 0
-0.730606 -1.18121 0.0305095 255 0 0
-0.119701 -1.20242 -0.64693 255 0 0
0.224544 -0.957279 1.23355 255 0 0
-1.19911 -0.781934 0.694919 255 0 0
-1.01981 -0.649975 0.391562 255 0 0
-0.0816827 -1.043 -0.327513 255 0 0
-0.0618995 -0.964208 -0.370017 255 0 0
-1.40096 -0.44206 0.212769 255 0 0
-1.11264 -1.2445 0.175644 255 0 0
-0.550842 -1.05757 0.284855 255 0 0
-0.859017 -1.19774 -0.129336 255 0 0
-0.427796 -0.504995 0.371756 255 0 0
-0.919418 0.117141 -0.601721 255 0 0
-0.324071 -0.998274 0.698028 255 0 0
-0.176155 -0.960375 -0.547916 255 0 0
0.280345 -0.944022 1.31157 255 0 0
-0.0436789 -0.377002 2.25337 255 0 0
-0.30208 -0.0436171 -0.565824 255 0 0
-0.287743 -0.064237 -0.544356 255 0 0
-0.319638 -0.0413749 -0.566985 255 0 0
-0.320967 -0.0410162 -0.585706 255 0 0
-0.323702 -0.0632253 -0.58724 255 0 0
0.61724 -0.719246 2.37023 255 0 0
-0.340687 -0.0580929 -0.601868 255 0 0
-0.985659 -1.24573 -0.149733 255 0 0
-0.685862 -0.690443 0.304541 255 0 0
-0.853358 -0.16335 1.97172 255 0 0
0.859701 -0.0430533 0.196794 255 0 0
0.971397 0.810069 -0.305572 255 0 0
0.499731 -0.103449 -0.188722 255 0 0
-0.0208547 -1.34737 1.01268 255 0 0
-1.29742 -0.455754 0.27524 255 0 0
-1.12265 -0.944191 0.81353 255 0 0
-1.06519 0.613632 0.773689 255 0 0
-0.51723 -0.889936 0.655667 255 0 0
-0.586637 -0.70333 0.833052 255 0 0
-0.541095 -0.0225032 2.45373 255 0 0
0.340078 -0.944816 1.39007 255 0 0
-0.778725 -0.0215912 -0.367459 255 0 0
-1.20144 -0.678335 0.291334 255 0 0
-0.901017 -0.882175 1.31065 255 0 0
-1.00139 -1.18215 -0.0390847 255 0 0
-0.320316 -0.245736 -0.601956 255 0 0
-0.315232 -0.23076 -0.588828 255 0 0
-0.298472 -0.203388 -0.543537 255 0 0
-0.963149 0.0540855 -0.551678 255 0 0
-0.300086 -0.224271 -0.566631 255 0 0
-0.421318 -0.769567 2.00126 255 0 0
-0.325179 -0.0620687 -0.604848 255 0 0
-1.19826 -0.823712 0.711048 255 0 0
-0.302618 -0.042396 -0.585495 255 0 0
-0.302646 -0.0307291 -0.547376 255 0 0
-0.320636 -0.030178 -0.545353 255 0 0
-0.670007 -0.541914 -0.422208 255 0 0
-1.06502 -0.0834533 0.81339 255 0 0
-1.73136 -0.342755 0.01982 255 0 0
-0.502766 -0.00672793 -0.533983 255 0 0
-0.602001 0.455787 2.43137 255 0 0
1.14728 -1.26286 2.33571 255 0 0
1.25811 -1.08387 2.29086 255 0 0
-0.338124 -1.04569 0.476875 255 0 0
1.56268 -0.635002 2.42437 255 0 0
-0.637642 -0.81993 0.0094704 255 0 0
-1.01036 -0.693685 -0.117472 255 0 0
-0.746919 -0.628313 0.291149 255 0 0
-0.410088 -0.550978 0.333877 255 0 0
-1.69924 -0.382768 -0.0893811 255 0 0
0.0388743 -0.762429 1.13168 255 0 0
-0.718313 -1.05837 1.68654 255 0 0
-0.860631 -0.329279 0.491696 255 0 0
-0.411865 -1.23643 0.802082 255 0 0
0.743267 0.26415 0.0258748 255 0 0
-0.48069 -0.542411 0.289497 255 0 0
1.30487 -0.858794 2.69073 255 0 0
-0.815126 -1.18946 0.667845 255 0 0
0.299529 -0.69877 2.96764 255 0 0
-0.812154 -1.22622 0.678133 255 0 0
-1.55817 0.378082 0.713182 255 0 0
-1.44205 -0.48444 0.108709 255 0 0
-0.447586 -0.661693 0.277481 255 0 0
-0.141646 -0.402663 2.46421 255 0 0
-0.105914 -1.16382 -0.194125 255 0 0
-0.120842 -1.34749 1.09291 255 0 0
-0.302126 -0.163958 -0.564148 255 0 0
-0.298064 -0.182896 -0.543637 255 0 0
-1.0835 -0.460179 0.774715 255 0 0
-1.34838 0.987826 0.67245 255 0 0
-0.817851 0.115602 -0.661013 255 0 0
-1.16391 -0.683361 -0.0273769 255 0 0
-0.921183 -0.658686 0.2927 255 0 0
-1.06051 -1.08281 0.851463 255 0 0
-0.598712 -0.281809 0.334923 255 0 0
-0.35632 -0.840109 0.692775 255 0 0
-1.33171 0.58564 1.24318 255 0 0
-0.454962 -0.522719 0.371659 255 0 0
-0.975781 -1.19531 1.17552 255 0 0
1.11888 -0.863286 2.17872 255 0 0
-0.286979 -0.223717 -0.542949 255 0 0
-0.299788 -0.0829212 -0.56579 255 0 0
-0.28681 -0.22393 -0.532248 255 0 0
-0.32338 -0.0426472 -0.602823 255 0 0
-0.320397 -0.0320385 -0.561491 255 0 0
-1.16506 -1.18458 -0.0474778 255 0 0
-1.18897 0.710344 0.814981 255 0 0
-0.374919 -0.785612 0.496647 255 0 0
0.558576 -0.646051 2.03289 255 0 0
-0.193737 -0.467001 1.86328 255 0 0
1.20897 -1.03498 2.26427 255 0 0
1.52315 -1.1645 1.85519 255 0 0
0.0609515 -1.04761 1.133 255 0 0
-0.69977 -0.16169 0.453308 255 0 0
-1.15697 0.677859 0.874053 255 0 0
