ply
format ascii 1.0
comment Created by Open3D
element vertex 1253
property double x
property double y
property double z
property uchar red
property uchar green
property uchar blue
end_header
0.940111 -0.524521 -0.207333 238 208 1
-0.696109 -0.804 0.730578 238 208 1
-1.53806 0.254706 0.407742 238 208 1
-0.178698 -0.663363 1.98893 238 208 1
-1.42035 -0.263031 0.552149 238 208 1
-1.40146 -0.323343 0.568907 238 208 1
-1.42302 -0.298381 0.571309 238 208 1
-0.584373 -0.64122 0.709008 238 208 1
-0.680513 -0.821008 0.753227 238 208 1
-1.51724 0.274932 0.427113 238 208 1
-1.43453 -0.260993 0.570215 238 208 1
-1.42257 -0.264307 0.57421 238 208 1
-0.580401 -0.602562 0.711082 238 208 1
-1.37674 -0.322724 0.589674 238 208 1
-0.559342 -0.243141 2.41003 238 208 1
-0.662372 -0.822567 0.77277 238 208 1
-0.661079 -0.841127 0.771948 238 208 1
-1.404 -0.283195 0.595959 238 208 1
-1.40514 -0.293903 0.600274 238 208 1
-0.662505 -0.802992 0.771403 238 208 1
1.02959 -0.19396 0.0777522 238 208 1
-0.638867 -0.763358 0.77176 238 208 1
-1.39623 -0.240883 0.611945 238 208 1
-0.501006 -0.704584 1.81228 238 208 1
0.0588644 -0.662204 1.47301 238 208 1
-0.665457 -0.82465 0.790315 238 208 1
-0.578639 -0.438972 2.40902 238 208 1
-1.3813 -0.281778 0.613565 238 208 1
-1.38164 -0.284155 0.631893 238 208 1
-0.546923 -0.262087 0.639216 238 208 1
-0.621522 -0.723872 0.773359 238 208 1
-0.623145 -0.743011 0.774064 238 208 1
-1.38213 -0.243356 0.611927 238 208 1
-1.37716 -0.263786 0.629892 238 208 1
-1.37984 -0.24175 0.631917 238 208 1
-1.3338 -0.316096 0.647533 238 208 1
-1.3608 -0.262962 0.634382 238 208 1
-1.36074 -0.281911 0.650819 238 208 1
-0.62338 -0.743366 0.789794 238 208 1
-1.42204 0.0360125 0.567337 238 208 1
0.83868 -0.443716 -0.407213 238 208 1
-0.580952 -0.52325 0.731984 238 208 1
-0.401496 -0.683604 1.93168 238 208 1
-1.29717 -0.304794 0.669781 238 208 1
-1.38095 -0.203431 0.653026 238 208 1
-1.33931 -0.261922 0.672805 238 208 1
-1.31954 -0.280149 0.674009 238 208 1
-0.584711 -0.54362 0.754161 238 208 1
-0.657315 -0.766809 0.806756 238 208 1
-1.31616 -0.261321 0.668357 238 208 1
-1.31933 -0.27983 0.689979 238 208 1
-1.29821 -0.280517 0.68943 238 208 1
-1.29609 -0.303204 0.688132 238 208 1
-1.29637 -0.261913 0.688702 238 208 1
-0.562923 -0.226033 0.667682 238 208 1
-0.620757 -0.703559 0.791573 238 208 1
-1.48079 0.0549518 0.609959 238 208 1
-1.45514 -0.038087 0.628221 238 208 1
-1.36001 -0.0661356 0.650691 238 208 1
-1.29959 -0.223265 0.692282 238 208 1
-1.28125 -0.243538 0.69269 238 208 1
-1.26015 -0.283104 0.712423 238 208 1
-0.260495 -0.682713 -0.00699358 238 208 1
-1.49877 0.0554155 0.609632 238 208 1
-0.457044 -0.765568 1.4583 238 208 1
-1.27752 -0.262683 0.710603 238 208 1
-1.26047 -0.263947 0.713483 238 208 1
-0.566197 -0.24861 0.688853 238 208 1
-0.242548 -0.64216 1.85741 238 208 1
-1.50099 0.0543866 0.633908 238 208 1
-1.23959 -0.322325 0.731658 238 208 1
1.20186 -0.824673 2.25387 238 208 1
-1.51044 -0.109975 0.501789 238 208 1
-1.43442 0.428319 0.530461 238 208 1
1.31691 -0.718395 2.31243 238 208 1
1.56041 -0.685754 2.37463 238 208 1
-1.28174 -0.203222 0.712575 238 208 1
-1.25824 -0.28117 0.730359 238 208 1
-0.586171 -0.229599 0.688504 238 208 1
-1.25949 -0.26285 0.731091 238 208 1
-1.21936 -0.341783 0.75167 238 208 1
-1.26136 -0.222933 0.732543 238 208 1
-0.561961 -0.263754 0.709145 238 208 1
-1.43479 0.431434 0.553662 238 208 1
-1.24059 -0.281132 0.751298 238 208 1
-1.19844 -0.362303 0.771836 238 208 1
-1.19742 -0.382058 0.770367 238 208 1
-0.540591 -0.323783 0.730529 238 208 1
-1.40052 0.0714143 0.653851 238 208 1
-1.25594 -0.260574 0.748225 238 208 1
-1.2185 -0.323627 0.771607 238 208 1
-1.21687 -0.341044 0.770394 238 208 1
-0.580924 -0.245264 0.707449 238 208 1
-0.526059 -0.385311 0.749808 238 208 1
-1.42635 -0.247042 0.633816 238 208 1
-0.58118 -0.582755 0.811526 238 208 1
-1.46186 0.412777 0.574145 238 208 1
-1.27881 -0.0827613 0.71196 238 208 1
-1.2568 -0.221751 0.748346 238 208 1
-1.25833 -0.242088 0.748601 238 208 1
-1.21936 -0.303371 0.771138 238 208 1
-1.17641 -0.401463 0.789966 238 208 1
-0.601807 -0.231287 0.705375 238 208 1
-0.601899 -0.246489 0.706271 238 208 1
-1.43816 0.434336 0.567716 238 208 1
-1.43942 0.412375 0.571742 238 208 1
-0.561546 -0.285436 0.72891 238 208 1
-1.26034 -0.122621 0.731723 238 208 1
-1.23558 -0.261941 0.768512 238 208 1
-1.21459 -0.320689 0.788049 238 208 1
-1.17535 -0.399551 0.812144 238 208 1
-1.42663 0.448987 0.568848 238 208 1
-1.2353 -0.242381 0.767888 238 208 1
-1.19601 -0.3782 0.81306 238 208 1
-0.524726 -0.405192 0.76665 238 208 1
0.359069 -0.624085 1.65318 238 208 1
-1.24035 -0.276203 0.789183 238 208 1
-1.20683 -0.350385 0.803187 238 208 1
-1.20488 -0.366481 0.810894 238 208 1
-0.526826 -0.389982 0.763563 238 208 1
0.219462 -0.684447 1.49299 238 208 1
-0.424108 -0.606257 -0.184527 238 208 1
-0.3447 -0.610118 -0.102611 238 208 1
-0.302195 -0.6065 -0.0448574 238 208 1
-0.639077 -0.501088 -0.383657 238 208 1
-0.321815 -0.609617 -0.0296472 238 208 1
-0.319408 -1.06309 -0.0848452 238 208 1
-0.319946 -1.08361 -0.0833185 238 208 1
-0.318675 -1.10294 -0.0837191 238 208 1
-0.640286 -0.583699 -0.308766 238 208 1
-0.340466 -1.12249 -0.0659191 238 208 1
0.379991 -0.864754 1.43216 238 208 1
0.338597 -0.823015 1.43277 238 208 1
1.27916 -0.802808 2.17067 238 208 1
0.689124 -0.590234 2.12043 238 208 1
-0.50159 -0.668731 1.7926 238 208 1
-0.281512 -1.02364 -0.0272363 238 208 1
-0.49798 -1.12432 0.0384913 238 208 1
-0.519464 -1.10292 0.0553891 238 208 1
-0.538114 -1.1047 0.057078 238 208 1
-0.618883 -0.683568 0.61328 238 208 1
-0.559062 -1.10282 0.076124 238 208 1
-0.455415 -0.732002 -0.000280923 238 208 1
1.29445 -0.665863 2.45105 238 208 1
-0.421486 -0.699994 -0.18683 238 208 1
-0.458451 -0.964108 0.373508 238 208 1
0.618472 -0.584841 -0.18655 238 208 1
-0.479256 -0.903174 0.393301 238 208 1
-0.477807 -0.961472 0.394935 238 208 1
-0.461041 -0.823479 0.412287 238 208 1
-1.46161 -0.163563 0.513396 238 208 1
-1.25852 -0.56405 0.571337 238 208 1
-0.640009 -0.90389 0.453191 238 208 1
0.758801 -0.561254 -0.365616 238 208 1
-0.642598 -0.885739 0.45316 238 208 1
0.699466 -0.72213 2.83414 238 208 1
-0.583027 -0.88539 0.491949 238 208 1
-0.605968 -1.00499 0.490217 238 208 1
-0.605792 -0.979799 0.509261 238 208 1
-0.664909 -0.844567 0.492633 238 208 1
-0.603169 -0.303645 2.472 238 208 1
-1.40131 0.636469 0.47195 238 208 1
-0.662725 -0.885547 0.511416 238 208 1
-1.14395 -0.482412 0.713673 238 208 1
0.339897 -0.521561 2.01132 238 208 1
-0.677615 -0.84598 0.496331 238 208 1
-0.679851 -0.864163 0.5128 238 208 1
-0.589589 -0.937784 0.54678 238 208 1
-0.678295 -0.824189 0.510722 238 208 1
-0.682332 -0.865961 0.53189 238 208 1
-0.694932 -0.850396 0.529582 238 208 1
-0.680765 -0.848915 0.53232 238 208 1
-0.600481 -0.741322 0.552729 238 208 1
0.906805 0.264947 0.0837713 238 208 1
-0.679842 -0.865234 0.552055 238 208 1
-0.642073 -0.862658 0.552681 238 208 1
-1.59854 -0.323911 0.253601 238 208 1
-0.601229 -0.741103 0.572941 238 208 1
-0.528113 -0.674642 0.569995 238 208 1
0.538724 -0.66129 2.89328 238 208 1
-1.57429 -0.402948 0.331737 238 208 1
-0.618653 -0.862374 0.63332 238 208 1
-0.180991 -0.665368 1.81344 238 208 1
-0.620091 -0.842716 0.633359 238 208 1
-0.65725 -0.842605 0.632128 238 208 1
-1.56851 -0.373713 0.382894 238 208 1
0.538855 -0.720727 1.73598 238 208 1
-0.624436 -0.842555 0.652454 238 208 1
-0.960022 -0.703049 1.27353 238 208 1
-0.627072 -0.861242 0.668757 238 208 1
-0.634872 -0.843267 0.673721 238 208 1
-1.48119 -0.301681 0.433732 238 208 1
-0.639187 -0.824364 0.673366 238 208 1
-1.46403 -0.30443 0.453592 238 208 1
-1.49455 -0.327144 0.449412 238 208 1
-1.46106 -0.321611 0.453938 238 208 1
-1.48114 -0.264157 0.472877 238 208 1
-0.104445 -0.703518 1.95108 238 208 1
0.875421 -0.538067 0.032999 238 208 1
-1.43819 -0.302054 0.489627 238 208 1
-0.658679 -0.644669 0.827962 238 208 1
-1.44211 -0.262983 0.491784 238 208 1
-1.43962 -0.279959 0.491002 238 208 1
0.519365 -0.623843 2.91585 238 208 1
-0.644705 -0.823595 0.708911 238 208 1
-0.665004 -0.842282 0.710028 238 208 1
-1.41789 -0.22591 0.493141 238 208 1
-1.44002 -0.325985 0.51172 238 208 1
-0.66192 -0.823019 0.712701 238 208 1
-1.46658 0.0194107 0.427871 238 208 1
-1.42041 -0.280233 0.513201 238 208 1
-1.452 0.0513687 0.425271 238 208 1
-1.46982 -0.00275567 0.437403 238 208 1
-1.41938 -0.263798 0.512963 238 208 1
0.959559 -0.722556 2.49414 238 208 1
-0.679285 -0.743431 0.733199 238 208 1
-1.43451 -0.27846 0.555692 238 208 1
-0.660944 -0.683557 0.733479 238 208 1
-0.583179 -0.162027 2.47539 238 208 1
-0.658845 -0.703354 0.751332 238 208 1
-1.33808 -0.302654 0.609563 238 208 1
-0.659144 -0.68375 0.752101 238 208 1
0.880572 -0.503759 -0.308718 238 208 1
-1.42045 -0.266432 0.614899 238 208 1
-0.64269 -0.822048 0.789235 238 208 1
-1.46131 -0.204062 0.611992 238 208 1
-1.44071 -0.241522 0.617325 238 208 1
-1.40053 -0.27922 0.629929 238 208 1
-0.623081 -0.763001 0.788249 238 208 1
-0.642711 -0.682977 0.77233 238 208 1
-1.45611 -0.220679 0.628899 238 208 1
-1.47413 -0.182101 0.616817 238 208 1
-1.46434 -0.203192 0.633395 238 208 1
-1.44269 -0.228014 0.634194 238 208 1
-0.524098 -0.303894 0.671952 238 208 1
-0.641367 -0.643027 0.772256 238 208 1
-1.47692 0.0564773 0.552335 238 208 1
-1.41912 -0.244331 0.648241 238 208 1
-1.48142 0.0540916 0.574546 238 208 1
-1.46423 -0.198464 0.651816 238 208 1
-1.38455 -0.266296 0.660769 238 208 1
-1.37731 -0.27697 0.670898 238 208 1
-1.47757 -0.124001 0.631465 238 208 1
-1.47156 -0.179748 0.649401 238 208 1
-1.3965 -0.258878 0.668558 238 208 1
-1.38097 -0.263172 0.672253 238 208 1
-0.622592 -0.663586 0.79227 238 208 1
-1.47662 0.0700466 0.593626 238 208 1
-1.37949 -0.245615 0.675833 238 208 1
-1.35665 -0.261738 0.688749 238 208 1
-1.36172 -0.24279 0.69086 238 208 1
-1.02079 -1.20488 0.973842 238 208 1
-1.48444 -0.0845884 0.644128 238 208 1
-0.9988 -1.22184 0.976948 238 208 1
-1.46616 -0.11083 0.660491 238 208 1
-1.45848 -0.125138 0.664505 238 208 1
-1.44063 -0.143546 0.668767 238 208 1
0.879527 0.556811 0.0918365 238 208 1
-1.35838 -0.222449 0.691268 238 208 1
-1.31662 -0.221323 0.687889 238 208 1
-0.999017 -1.20313 0.975998 238 208 1
-0.979708 -1.22392 0.989973 238 208 1
-0.961709 -1.2233 0.993616 238 208 1
-0.999416 -1.18478 0.97557 238 208 1
1.66096 -0.664866 2.25559 238 208 1
-0.522087 -0.306538 0.707874 238 208 1
-1.00296 -1.16716 0.980507 238 208 1
-0.981046 -1.18276 0.992158 238 208 1
-0.961633 -1.20306 0.993158 238 208 1
-0.943393 -1.22431 0.995883 238 208 1
-0.999258 -1.16422 0.991778 238 208 1
-0.963702 -1.18372 0.993345 238 208 1
-0.938842 -1.22352 1.0111 238 208 1
-0.296618 -0.982984 -0.0218152 238 208 1
-1.27342 -0.241654 0.727587 238 208 1
-0.920683 -1.22306 1.01488 238 208 1
-0.547668 -0.267809 0.708568 238 208 1
-0.98059 -1.14386 0.995053 238 208 1
-0.98185 -1.14463 1.01219 238 208 1
-0.962027 -1.16416 1.01247 238 208 1
-1.27852 -0.182738 0.729976 238 208 1
-1.27677 -0.229847 0.744324 238 208 1
-1.28329 -0.240712 0.756203 238 208 1
-1.10443 -0.30868 0.75908 238 208 1
-0.941091 -1.16359 1.01268 238 208 1
-0.625878 -0.486609 -0.397377 238 208 1
-0.624524 -0.497117 -0.397965 238 208 1
-0.305425 -0.611224 -0.0628076 238 208 1
-0.299299 -0.863899 -0.102515 238 208 1
-0.300055 -0.903504 -0.105588 238 208 1
-0.296997 -0.963453 -0.119592 238 208 1
-0.279462 -0.984715 -0.119063 238 208 1
-0.281036 -1.02382 -0.123035 238 208 1
-0.287404 -1.04209 -0.127164 238 208 1
-0.287276 -1.06136 -0.127349 238 208 1
-0.284668 -1.10338 -0.126189 238 208 1
-0.294979 -1.04431 -0.120594 238 208 1
-0.30037 -1.04278 -0.107156 238 208 1
-0.294916 -1.08361 -0.120998 238 208 1
-0.313863 -0.905096 -0.0989824 238 208 1
-0.314058 -0.924567 -0.099743 238 208 1
0.67487 -0.657647 2.91888 238 208 1
-0.313971 -0.943973 -0.100491 238 208 1
-0.314136 -0.963607 -0.100019 238 208 1
-0.313715 -1.02122 -0.101754 238 208 1
-0.313134 -1.04278 -0.101832 238 208 1
-0.335054 -0.843235 -0.0815824 238 208 1
-0.313497 -1.08638 -0.0997552 238 208 1
-0.33512 -0.884339 -0.0805969 238 208 1
-0.333669 -0.901915 -0.0815375 238 208 1
-0.318326 -1.12229 -0.0862641 238 208 1
-0.334994 -0.963964 -0.0801418 238 208 1
-0.336143 -0.984682 -0.0793169 238 208 1
-0.337745 -1.02402 -0.0812847 238 208 1
-0.338217 -1.08242 -0.0797118 238 208 1
-0.338284 -1.12364 -0.0800614 238 208 1
-0.360116 -1.10347 -0.0647078 238 208 1
0.43288 -0.540637 1.89307 238 208 1
-0.391605 -1.02095 -0.0397316 238 208 1
-0.393275 -1.04241 -0.0393281 238 208 1
-0.393419 -1.06141 -0.040836 238 208 1
-0.396501 -1.10404 -0.0409249 238 208 1
-0.414686 -1.02328 -0.0207674 238 208 1
-0.415891 -1.08279 -0.0217759 238 208 1
-0.416359 -1.06447 -0.0209807 238 208 1
-0.475241 -1.04334 0.0187832 238 208 1
-0.475654 -1.06427 0.0195152 238 208 1
-1.24162 -0.044021 0.792853 238 208 1
-0.175891 -0.881479 1.25957 238 208 1
-0.318303 -0.804286 1.394 238 208 1
-0.660545 -0.742184 1.6529 238 208 1
-0.40254 -0.722084 0.0911254 238 208 1
-0.342412 -0.94405 0.0307772 238 208 1
-0.479645 -0.884373 0.354544 238 208 1
-0.478251 -0.862393 0.355005 238 208 1
-0.499235 -1.00166 0.390145 238 208 1
-0.526439 -0.944517 0.369627 238 208 1
-0.523598 -0.963738 0.374184 238 208 1
0.519288 -0.544528 2.21256 238 208 1
-0.553332 -1.02371 0.423236 238 208 1
-0.560315 -1.00053 0.426782 238 208 1
1.07838 -0.724821 2.63165 238 208 1
-0.839182 -0.36177 2.07255 238 208 1
0.858712 0.156836 -0.027225 238 208 1
-0.605294 -1.02355 0.436115 238 208 1
0.400602 -0.804514 1.60385 238 208 1
0.11976 -0.441766 1.75448 238 208 1
-0.601913 -0.984761 0.433619 238 208 1
-0.623573 -0.281642 2.35673 238 208 1
-0.57889 -0.983799 0.472976 238 208 1
-0.579351 -1.00374 0.470479 238 208 1
-0.583872 -1.0234 0.475367 238 208 1
0.479356 -0.640714 3.03399 238 208 1
-0.659247 -0.562225 0.812906 238 208 1
-0.579135 -1.00452 0.483484 238 208 1
-0.541355 -0.0832247 2.3952 238 208 1
-0.589293 -1.02205 0.486397 238 208 1
1.57968 -0.718153 2.01338 238 208 1
-0.64081 -0.8049 0.611306 238 208 1
-0.618839 -0.52452 0.68715 238 208 1
-0.666274 -0.864554 0.511147 238 208 1
-0.664037 -0.827265 0.508044 238 208 1
-0.664574 -0.844096 0.509569 238 208 1
-1.60033 -0.323847 0.232187 238 208 1
-1.59394 -0.338149 0.275614 238 208 1
-0.688272 -0.68201 0.000543793 238 208 1
-1.61703 0.0499259 0.22002 238 208 1
1.45941 -0.723194 1.97136 238 208 1
-1.58681 -0.351366 0.347326 238 208 1
0.797458 -0.665134 2.76968 238 208 1
-1.63306 -0.0692927 0.306671 238 208 1
-0.764852 -0.0997112 2.09478 238 208 1
-0.996663 -0.721483 1.1708 238 208 1
-0.739783 -0.363955 2.31089 238 208 1
-0.567748 -0.696118 0.631353 238 208 1
-1.57653 0.0564835 0.29323 238 208 1
-1.62267 -0.181691 0.35226 238 208 1
-1.63975 -0.14523 0.354806 238 208 1
-1.63997 -0.141928 0.37136 238 208 1
0.399416 -0.61025 3.07193 238 208 1
-1.65724 -0.126649 0.371809 238 208 1
-1.59344 -0.204465 0.407821 238 208 1
-0.400764 -0.670273 1.69315 238 208 1
-0.547863 -0.602735 0.632507 238 208 1
-0.544073 -0.642806 0.653129 238 208 1
0.742567 0.0562957 -0.309224 238 208 1
-0.200866 -0.582929 2.09292 238 208 1
-1.64291 -0.124165 0.393482 238 208 1
-1.50028 -0.262371 0.452407 238 208 1
0.798747 -0.719649 2.91232 238 208 1
-1.45937 -0.301319 0.470733 238 208 1
-0.569538 -0.696867 0.685369 238 208 1
-1.5235 0.234947 0.332957 238 208 1
0.98319 -0.341581 -0.0476794 238 208 1
-1.54242 -0.203032 0.471958 238 208 1
-1.52606 -0.203232 0.474074 238 208 1
-1.4864 -0.203348 0.474668 238 208 1
-1.49565 -0.165162 0.474062 238 208 1
-0.544486 -0.61998 0.688143 238 208 1
-1.38209 -0.304325 0.533456 238 208 1
-0.541278 -0.600733 0.69116 238 208 1
-0.522358 -0.563562 0.672827 238 208 1
-0.619873 -0.801337 0.752542 238 208 1
-0.621505 -0.819975 0.754801 238 208 1
-1.4882 0.278197 0.39857 238 208 1
-0.507275 -0.502593 0.688157 238 208 1
-0.506608 -0.520137 0.686829 238 208 1
-0.563515 -0.582803 0.711855 238 208 1
-0.505462 -0.443183 0.691442 238 208 1
-0.000191073 -0.585069 1.69243 238 208 1
-0.508539 -0.403386 0.678495 238 208 1
-0.504186 -0.4232 0.692549 238 208 1
-0.503893 -0.383448 0.692736 238 208 1
-0.667936 -0.803979 0.803423 238 208 1
-0.503545 -0.421408 0.711951 238 208 1
-0.54073 -0.703952 1.59342 238 208 1
-0.502863 -0.403391 0.712346 238 208 1
-0.502121 -0.383569 0.712131 238 208 1
-0.874664 -0.222856 2.10888 238 208 1
-0.504958 -0.344046 0.69293 238 208 1
-0.50032 -0.363369 0.711274 238 208 1
-0.527595 -0.456631 0.736643 238 208 1
-1.05702 -1.22238 0.991648 238 208 1
-1.17983 -0.563029 0.672413 238 208 1
-0.981526 -1.24315 0.99314 238 208 1
0.660129 -0.558132 2.13291 238 208 1
-1.07312 -1.20395 0.985196 238 208 1
-1.05914 -1.20129 0.992238 238 208 1
-1.02205 -0.86434 0.994843 238 208 1
-1.04151 -1.20577 0.995409 238 208 1
-1.39868 0.0566552 0.612587 238 208 1
-1.39656 0.0373771 0.615127 238 208 1
-0.50008 -0.384019 0.730367 238 208 1
-0.999875 -1.22557 1.01322 238 208 1
-0.978254 -1.22183 1.01158 238 208 1
0.178013 -0.559941 1.62969 238 208 1
-0.50599 -0.32586 0.709952 238 208 1
0.740384 -0.738225 2.87385 238 208 1
-0.503718 -0.423706 0.750473 238 208 1
-1.40019 0.0583614 0.628453 238 208 1
-1.35985 0.0361422 0.631408 238 208 1
-0.521502 -0.285613 0.705099 238 208 1
-0.505732 -0.347059 0.725021 238 208 1
-1.02136 -1.1857 1.01283 238 208 1
-0.978053 -1.22186 1.03081 238 208 1
-1.40867 0.0676098 0.628035 238 208 1
-1.01962 -1.17938 1.03202 238 208 1
-0.998634 -1.19903 1.02986 238 208 1
-0.963968 -1.22451 1.033 238 208 1
-0.387108 -0.612559 -0.15925 238 208 1
-0.369023 -0.612269 -0.138913 238 208 1
-0.82922 -0.269862 2.07932 238 208 1
0.659068 -0.683607 2.89256 238 208 1
0.857684 -0.385293 -0.267469 238 208 1
0.380664 -0.762474 1.59326 238 208 1
-0.401024 -0.669998 1.71248 238 208 1
0.379847 -0.742623 1.59572 238 208 1
-0.261418 -1.10648 -0.0468476 238 208 1
-0.242702 -1.10682 -0.0473368 238 208 1
-0.241389 -1.10956 -0.0262878 238 208 1
-0.240347 -1.10563 -0.00592703 238 208 1
-0.280243 -1.104 -0.00774157 238 208 1
-0.258798 -1.1049 0.0111005 238 208 1
-0.320712 -0.622295 2.07268 238 208 1
-0.473685 -0.899946 1.47514 238 208 1
0.218045 -0.403416 2.13176 238 208 1
0.795031 -0.103481 -0.306035 238 208 1
-1.0209 -0.823411 1.05572 238 208 1
-0.598145 -0.663598 0.537849 238 208 1
-0.458563 -0.703846 0.000404575 238 208 1
-0.275927 -0.690749 1.35988 238 208 1
0.458768 -0.522799 2.07222 238 208 1
-0.560347 -0.692293 0.0763328 238 208 1
-0.611521 -0.747811 0.0570424 238 208 1
-0.580058 -0.923932 0.0775386 238 208 1
-0.560791 -0.609969 0.112499 238 208 1
0.637062 -0.483681 -0.191024 238 208 1
-0.639109 -0.40271 2.45038 238 208 1
0.852985 0.0973485 -0.0624491 238 208 1
-0.982157 -1.14278 1.06925 238 208 1
-0.601069 -0.609747 0.133047 238 208 1
-0.200024 -0.883857 1.29337 238 208 1
-0.582034 -0.611481 0.15145 238 208 1
-0.600508 -0.610777 0.153623 238 208 1
-0.619856 -0.610663 0.189007 238 208 1
-1.17233 -0.505714 0.784015 238 208 1
-0.958528 -0.963267 1.07274 238 208 1
1.45799 -0.723455 2.45298 238 208 1
0.622907 -0.672884 2.75456 238 208 1
-0.446798 -0.819288 0.369125 238 208 1
-1.19425 -0.67363 0.0210657 238 208 1
-0.501379 -0.903178 0.39372 238 208 1
0.379137 -0.729355 3.05512 238 208 1
-0.481812 -0.860256 0.447233 238 208 1
-0.798552 -0.419407 2.21209 238 208 1
-0.561888 -0.940749 0.471612 238 208 1
-0.542073 -0.94092 0.477155 238 208 1
-0.541046 -0.946634 0.48411 238 208 1
-0.277847 -0.713802 1.77401 238 208 1
0.845827 0.409704 0.0899083 238 208 1
-1.21582 -0.602193 0.687523 238 208 1
1.30489 -0.664328 1.89651 238 208 1
-0.674628 -0.866056 0.47595 238 208 1
-0.674519 -0.827894 0.501044 238 208 1
-0.693306 -0.863623 0.516391 238 208 1
1.4589 -0.819869 1.94805 238 208 1
-0.554651 -0.603185 0.51579 238 208 1
-0.241253 -0.563376 2.03371 238 208 1
1.25786 -0.643602 2.53386 238 208 1
-0.581418 -0.862597 0.59274 238 208 1
-0.599863 -0.843832 0.593575 238 208 1
-0.962294 -0.783704 1.19271 238 208 1
-0.94198 -0.903677 1.17578 238 208 1
-1.5733 -0.324611 0.270129 238 208 1
-0.568747 -0.848248 0.613799 238 208 1
-0.601918 -0.841642 0.611769 238 208 1
-1.66545 -0.244563 0.271647 238 208 1
-1.68111 -0.22298 0.272793 238 208 1
-1.66684 -0.220217 0.273431 238 208 1
0.61986 -0.727567 2.85549 238 208 1
-0.525358 -0.484842 0.569762 238 208 1
0.947094 -0.816845 2.39724 238 208 1
-1.66235 -0.202712 0.29755 238 208 1
-0.526643 -0.464231 0.567957 238 208 1
-1.64547 0.0493628 0.253965 238 208 1
0.535042 -0.52843 1.77691 238 208 1
-0.612554 -0.548158 0.679822 238 208 1
-1.49922 -0.342391 0.370538 238 208 1
-1.67172 -0.0975611 0.291542 238 208 1
-0.580914 -0.802884 0.652039 238 208 1
-0.0027023 -0.501852 1.81157 238 208 1
-0.542139 -0.483868 0.58993 238 208 1
-0.539558 -0.465354 0.591915 238 208 1
-0.657891 -0.784466 0.65407 238 208 1
-0.543545 -0.643687 0.63162 238 208 1
-0.583047 -0.783018 0.65457 238 208 1
-0.523312 -0.622205 0.632014 238 208 1
-0.546419 -0.623998 0.632782 238 208 1
-0.507005 -0.602804 0.636311 238 208 1
-1.29567 -0.322892 0.513031 238 208 1
-0.489124 -0.588018 0.641061 238 208 1
-0.603633 -0.80501 0.670069 238 208 1
-0.504387 -0.566417 0.640113 238 208 1
-0.507804 -0.582537 0.656466 238 208 1
0.532312 -0.734099 2.98268 238 208 1
-1.61385 0.0538312 0.35383 238 208 1
-1.60945 0.053141 0.355676 238 208 1
-1.47904 0.177434 0.369947 238 208 1
-0.489315 -0.549191 0.675037 238 208 1
-0.517786 -0.603599 0.675306 238 208 1
-1.48083 0.215697 0.371704 238 208 1
-0.598724 -0.743895 0.732426 238 208 1
-1.555 0.0497636 0.43138 238 208 1
-0.598827 -0.72443 0.731785 238 208 1
-0.569839 -0.619976 0.70473 238 208 1
-1.54617 0.0510862 0.446793 238 208 1
-0.524613 -0.564267 0.690165 238 208 1
-0.60439 -0.681973 0.732654 238 208 1
-1.50618 0.0759185 0.454832 238 208 1
-0.507299 -0.38157 0.676167 238 208 1
-0.50666 -0.364351 0.674458 238 208 1
-0.979953 -0.661595 1.09269 238 208 1
-0.504258 -0.344183 0.675192 238 208 1
-1.41236 0.478862 0.405706 238 208 1
-1.32059 -0.26291 0.651359 238 208 1
-0.380585 -0.544294 2.01382 238 208 1
-0.524065 -0.265317 0.672392 238 208 1
-0.505169 -0.322801 0.67172 238 208 1
-1.43251 -0.338898 0.543029 238 208 1
-0.221827 -0.582682 1.89553 238 208 1
-1.33462 -0.402511 0.623849 238 208 1
-1.49421 0.069564 0.589022 238 208 1
1.43689 -0.864186 1.96984 238 208 1
-0.502832 -0.440507 0.75373 238 208 1
-1.06078 -0.763315 1.09325 238 208 1
0.738856 -0.680626 2.1723 238 208 1
-0.435447 -0.704519 -0.00176188 238 208 1
-0.789424 -0.560514 -0.224343 238 208 1
-0.819347 -0.543659 -0.210179 238 208 1
-0.537385 -0.726385 0.0187997 238 208 1
-0.79025 -0.532625 -0.159557 238 208 1
-0.3816 -0.843316 1.44913 238 208 1
-0.7938 -0.532394 -0.153875 238 208 1
0.280744 -0.462097 2.19159 238 208 1
1.29831 -0.742647 2.272 238 208 1
-0.165917 -0.801943 1.28641 238 208 1
-0.480683 -0.743222 1.53184 238 208 1
0.559144 -0.364403 -0.208938 238 208 1
-0.621083 -0.806078 0.110304 238 208 1
-0.628082 -0.777603 0.115794 238 208 1
0.681986 -0.583475 -0.29045 238 208 1
-0.565356 -0.611941 0.17025 238 208 1
-0.581394 -0.611153 0.175429 238 208 1
-0.880425 -0.469469 -0.00530211 238 208 1
-0.638254 -0.782804 0.154139 238 208 1
-0.717194 -0.303704 2.33107 238 208 1
-0.581818 -0.618951 0.190059 238 208 1
-0.58689 -0.612054 0.190539 238 208 1
-0.60611 -0.611246 0.208092 238 208 1
-0.121028 -0.687484 1.75335 238 208 1
-0.620568 -0.610016 0.211432 238 208 1
-0.629572 -0.626799 0.225834 238 208 1
-0.41967 -0.842916 0.374508 238 208 1
-0.911878 -0.551538 0.105799 238 208 1
-0.422659 -0.8229 0.392168 238 208 1
-0.446529 -0.923997 0.393697 238 208 1
-0.444356 -0.938776 0.389972 238 208 1
-0.437103 -0.861551 0.396595 238 208 1
-0.436969 -0.846229 0.396948 238 208 1
-0.441229 -0.82174 0.39484 238 208 1
0.658674 -0.721555 2.63582 238 208 1
-0.462478 -0.842837 0.412344 238 208 1
1.23075 -0.797075 2.50109 238 208 1
-0.558097 -0.962126 1.55528 238 208 1
-1.2036 -0.483043 0.673316 238 208 1
1.22566 -0.759365 2.6359 238 208 1
0.120714 -0.586217 1.59609 238 208 1
-0.361031 -0.703706 1.71293 238 208 1
0.676514 -0.279231 -0.262937 238 208 1
-0.567484 -0.978839 0.463079 238 208 1
-0.527852 -0.819337 0.466998 238 208 1
-0.903602 -0.841748 1.19343 238 208 1
-0.538901 -0.825492 0.472211 238 208 1
-0.75751 -0.263861 2.13207 238 208 1
1.61916 -0.631273 2.02939 238 208 1
-0.545857 -0.839663 0.492214 238 208 1
-0.858572 -0.0998474 2.12893 238 208 1
-0.519657 -0.782114 0.492216 238 208 1
0.279104 -0.607959 1.51915 238 208 1
-0.606906 -0.96212 0.529888 238 208 1
0.658618 -0.598705 -0.0283361 238 208 1
-0.543613 -0.75944 0.570637 238 208 1
-0.560814 -0.746254 0.572101 238 208 1
-0.560999 -0.761165 0.570799 238 208 1
-0.460632 -0.675082 -0.148553 238 208 1
-0.569117 -0.731503 0.586139 238 208 1
-0.563418 -0.776678 0.598519 238 208 1
-0.566752 -0.802714 0.614338 238 208 1
-0.506818 -0.544698 0.569001 238 208 1
0.139454 -0.408008 1.89219 238 208 1
-0.562485 -0.760008 0.613007 238 208 1
-1.14375 -0.524181 0.773615 238 208 1
-0.508567 -0.526981 0.566744 238 208 1
-0.580036 -0.7473 0.613061 238 208 1
-0.557911 -0.783212 0.632332 238 208 1
-0.563316 -0.803175 0.630644 238 208 1
-1.25607 -0.0422882 0.772837 238 208 1
-0.51787 -0.678273 -0.224146 238 208 1
-0.28039 -0.704367 1.39362 238 208 1
-0.00192295 -0.623727 1.77142 238 208 1
0.757196 -0.686479 2.95059 238 208 1
-1.67908 -0.242841 0.293295 238 208 1
-0.527123 -0.544375 0.589197 238 208 1
-1.68096 -0.224018 0.313074 238 208 1
1.25434 -0.719365 1.9387 238 208 1
-1.68196 -0.225052 0.32862 238 208 1
-1.6615 -0.224095 0.332193 238 208 1
-1.66261 -0.243039 0.334227 238 208 1
-1.60323 -0.265631 0.352859 238 208 1
-1.68235 -0.1841 0.314584 238 208 1
-1.67458 -0.200569 0.326029 238 208 1
-1.67482 -0.183014 0.328355 238 208 1
-1.52312 -0.29774 0.389159 238 208 1
-1.70509 -0.1304 0.314029 238 208 1
-1.70455 -0.140999 0.330547 238 208 1
-1.62509 -0.204014 0.352591 238 208 1
-1.70319 -0.122546 0.334073 238 208 1
-1.50199 -0.300401 0.411931 238 208 1
-0.641562 -0.123575 2.31351 238 208 1
-1.6448 -0.164895 0.354406 238 208 1
-1.52232 -0.103083 0.433825 238 208 1
-1.52474 0.0783417 0.41591 238 208 1
-0.590179 -0.719184 0.739004 238 208 1
-0.587467 -0.723678 0.751898 238 208 1
-0.589969 -0.738421 0.753844 238 208 1
0.679227 0.49648 -0.308345 238 208 1
-0.583399 -0.702803 0.751287 238 208 1
-1.32855 -0.245459 0.559661 238 208 1
-0.544501 -0.56445 0.706015 238 208 1
-1.35072 -0.213128 0.551515 238 208 1
-1.4978 0.0750309 0.466616 238 208 1
-1.48595 0.0759851 0.475236 238 208 1
-0.563789 -0.600952 0.736135 238 208 1
-0.570245 -0.637714 0.7402 238 208 1
-0.557982 -0.563034 0.732455 238 208 1
-0.567598 -0.661768 0.755719 238 208 1
1.14117 -0.761929 2.19254 238 208 1
-0.12611 -0.705056 1.98981 238 208 1
-0.554137 -0.604595 0.751307 238 208 1
-0.567241 -0.661227 0.772632 238 208 1
0.598325 -0.564046 -0.166903 238 208 1
-0.558115 -0.522474 0.731885 238 208 1
-1.3592 -0.242436 0.611945 238 208 1
-0.506397 -0.44002 0.706319 238 208 1
-0.55972 -0.503659 0.731481 238 208 1
0.719074 -0.124536 -0.288071 238 208 1
-1.3402 -0.242602 0.632448 238 208 1
-0.506611 -0.30459 0.674044 238 208 1
-0.549552 -0.597689 0.758725 238 208 1
-0.544553 -0.481847 0.731571 238 208 1
-0.548417 -0.601579 0.77271 238 208 1
-0.562622 -0.603294 0.775243 238 208 1
0.320121 -0.823425 1.35272 238 208 1
-0.549769 -0.519108 0.740824 238 208 1
-0.54402 -0.582985 0.77335 238 208 1
-0.566764 -0.643013 0.789437 238 208 1
-0.639735 -0.963192 0.513132 238 208 1
-0.570129 -0.655926 0.786442 238 208 1
-0.489441 -0.376234 0.699483 238 208 1
-1.41868 -0.164237 0.631447 238 208 1
-1.07391 -1.2176 0.983582 238 208 1
-0.553475 -0.616065 0.786063 238 208 1
-1.06773 -1.18831 0.979576 238 208 1
-1.39521 -0.200366 0.651255 238 208 1
-1.02088 -1.22448 1.01251 238 208 1
-1.41339 -0.16131 0.648248 238 208 1
-0.48575 -0.404104 0.725526 238 208 1
-0.488346 -0.417521 0.728575 238 208 1
-1.04083 -1.22252 1.01532 238 208 1
-1.36086 -0.205107 0.672489 238 208 1
-1.35777 -0.220871 0.671671 238 208 1
-0.9798 -1.02067 1.19142 238 208 1
-0.541771 -0.568752 0.784757 238 208 1
0.259944 -0.497289 2.07118 238 208 1
-1.40557 -0.184545 0.675031 238 208 1
-0.217478 -1.12167 -0.0820654 238 208 1
-0.221685 -1.10635 -0.0670912 238 208 1
0.841081 0.434829 0.0523282 238 208 1
0.598863 -0.703017 2.7324 238 208 1
-0.220558 -1.10944 -0.046151 238 208 1
-0.334736 -0.787214 -0.0784302 238 208 1
-0.393113 -0.804937 -0.0390745 238 208 1
-0.392689 -0.821463 -0.0385565 238 208 1
-0.457767 -0.948283 0.00168218 238 208 1
-0.456812 -0.982062 0.000698408 238 208 1
-0.493929 -0.979914 0.0197461 238 208 1
-0.494331 -1.00557 0.0226257 238 208 1
-0.512931 -1.02107 0.0397782 238 208 1
-0.598227 -0.747344 0.0359267 238 208 1
0.399143 -0.842737 1.45538 238 208 1
-0.171858 -0.468771 1.98198 238 208 1
-1.18892 -0.705161 0.702642 238 208 1
1.52028 -0.681619 1.91328 238 208 1
1.11786 -0.725122 2.63387 238 208 1
1.44911 -0.936303 1.94239 238 208 1
0.877557 0.156514 0.0514034 238 208 1
-0.44236 -0.902713 0.41011 238 208 1
-0.44286 -0.884139 0.408726 238 208 1
0.0193132 -0.69877 1.49255 238 208 1
-0.569147 -0.969864 0.467764 238 208 1
-0.581875 -0.984767 0.485238 238 208 1
-0.56548 -0.848416 0.477081 238 208 1
-1.47909 -0.264062 0.511776 238 208 1
-0.539194 -0.757214 0.530542 238 208 1
-0.574507 -0.822627 0.552523 238 208 1
-1.54713 -0.388565 0.202335 238 208 1
-0.582814 -0.822267 0.572854 238 208 1
-0.596136 -0.801678 0.59574 238 208 1
-0.567971 -0.922356 1.58756 238 208 1
-1.57809 -0.301282 0.330192 238 208 1
-0.529188 -0.526015 0.590438 238 208 1
0.736934 -0.183322 -0.246568 238 208 1
-0.542372 -0.603019 0.611201 238 208 1
-1.58819 0.0585643 0.254497 238 208 1
-0.541928 -0.58254 0.612239 238 208 1
1.47626 -0.627237 2.19432 238 208 1
-0.240599 -0.52767 2.17457 238 208 1
0.819636 -0.343331 -0.266672 238 208 1
-0.639319 -0.783532 0.672063 238 208 1
-0.62371 -0.742404 0.708179 238 208 1
1.50295 -0.797454 1.8502 238 208 1
-1.49999 -0.243248 0.472516 238 208 1
-1.52142 -0.162951 0.450741 238 208 1
-1.49892 -0.223922 0.471781 238 208 1
-1.48141 -0.26378 0.492529 238 208 1
0.309263 -0.767769 1.34246 238 208 1
-1.47867 -0.277879 0.492713 238 208 1
0.755794 -0.736351 2.8923 238 208 1
-1.48015 -0.244615 0.49286 238 208 1
-1.53707 0.0749107 0.391544 238 208 1
0.279279 -0.523604 1.7124 238 208 1
0.521211 -0.567546 3.15345 238 208 1
-1.48672 -0.206084 0.493812 238 208 1
-0.697101 -0.763367 0.728986 238 208 1
-1.00219 -0.803572 1.01387 238 208 1
-1.53274 0.070699 0.403813 238 208 1
-1.48734 -0.181411 0.492644 238 208 1
-1.47839 -0.241765 0.510141 238 208 1
-1.46042 -0.262503 0.5123 238 208 1
-0.719819 -0.765158 0.736513 238 208 1
-0.678817 -0.782437 0.751504 238 208 1
-1.47635 -0.12421 0.472133 238 208 1
-1.4821 -0.142574 0.492657 238 208 1
-0.723497 -0.765401 0.751581 238 208 1
-1.47843 -0.124834 0.493391 238 208 1
-1.49987 -0.203431 0.512457 238 208 1
-1.49807 -0.216927 0.51474 238 208 1
-1.46056 -0.24301 0.5128 238 208 1
0.699472 -0.183455 -0.308924 238 208 1
-1.45956 -0.240933 0.53127 238 208 1
0.302033 -0.841587 1.43247 238 208 1
-1.47727 -0.106207 0.492091 238 208 1
-1.47892 -0.221921 0.532916 238 208 1
-1.47366 -0.237929 0.532417 238 208 1
-0.698843 -0.763773 0.752678 238 208 1
-0.677966 -0.762389 0.752498 238 208 1
-1.50111 -0.181832 0.510706 238 208 1
-0.679984 -0.744369 0.754333 238 208 1
-1.4815 -0.124548 0.513339 238 208 1
-1.48196 -0.18367 0.533668 238 208 1
-1.45947 -0.239084 0.548468 238 208 1
-0.719447 -0.703878 0.747926 238 208 1
-0.730486 -0.752179 0.759228 238 208 1
-0.640057 -0.742762 0.771287 238 208 1
-1.49732 -0.143492 0.514463 238 208 1
-1.48017 -0.221576 0.551151 238 208 1
-0.70356 -0.743815 0.772319 238 208 1
-0.678523 -0.723003 0.753752 238 208 1
-0.658893 -0.742933 0.771773 238 208 1
-1.49205 0.0975184 0.446031 238 208 1
-1.49901 -0.202229 0.551463 238 208 1
-1.48117 -0.20435 0.552106 238 208 1
-0.714014 -0.658813 0.740544 238 208 1
-0.657708 -0.723003 0.772788 238 208 1
-0.713883 -0.640059 0.747926 238 208 1
-0.889701 -0.923906 1.27053 238 208 1
-0.680017 -0.702246 0.751935 238 208 1
-1.48432 -0.0220973 0.513491 238 208 1
-1.4882 -0.0634531 0.516443 238 208 1
-0.712763 -0.623856 0.738596 238 208 1
-0.683878 -0.683681 0.770944 238 208 1
-1.4797 0.0564104 0.49167 238 208 1
-1.49681 -0.0818239 0.532369 238 208 1
-1.49955 -0.20176 0.570179 238 208 1
-0.682648 -0.665224 0.75272 238 208 1
-0.638094 -0.72311 0.791413 238 208 1
-1.57488 -0.121833 0.513631 238 208 1
1.01979 -0.74098 2.57315 238 208 1
-1.50204 -0.183727 0.569894 238 208 1
-0.682383 -0.662465 0.772086 238 208 1
-1.48004 0.0758399 0.493797 238 208 1
-1.49804 -0.0428158 0.533197 238 208 1
-1.50068 -0.0821397 0.553069 238 208 1
0.598806 -0.543453 -0.247766 238 208 1
-1.50219 -0.163702 0.571523 238 208 1
-0.697556 -0.64053 0.768566 238 208 1
-1.4796 0.0945557 0.493255 238 208 1
1.43759 -0.681398 2.01127 238 208 1
-1.50288 -0.123935 0.573368 238 208 1
-1.51828 -0.163188 0.571953 238 208 1
-1.51635 -0.181775 0.57016 238 208 1
-1.50797 -0.189076 0.590169 238 208 1
0.700775 -0.659676 2.65145 238 208 1
-0.68378 -0.644878 0.773293 238 208 1
-0.658485 -0.682446 0.791961 238 208 1
-0.658301 -0.70269 0.791783 238 208 1
-1.48372 0.0561977 0.513163 238 208 1
-1.51688 -0.124024 0.570794 238 208 1
-1.51247 -0.164136 0.5906 238 208 1
-1.51439 -0.181373 0.594551 238 208 1
-1.50638 -0.196353 0.597994 238 208 1
-0.724604 -0.604556 0.760419 238 208 1
-0.562289 -0.42098 2.39083 238 208 1
-0.642686 -0.683226 0.792899 238 208 1
-1.48398 0.0774324 0.512954 238 208 1
-1.49885 -0.0417225 0.554306 238 208 1
-0.660629 -0.663152 0.792525 238 208 1
-1.51156 -0.124637 0.585511 238 208 1
-1.39344 -0.241287 0.625845 238 208 1
-0.722204 -0.590108 0.761994 238 208 1
-0.678634 -0.643973 0.791294 238 208 1
-0.641358 -0.701502 0.809907 238 208 1
-1.49508 -0.103156 0.587426 238 208 1
-1.39649 -0.222574 0.628851 238 208 1
-0.707829 -0.609666 0.778822 238 208 1
1.65777 -0.666979 2.30916 238 208 1
-1.53518 0.542269 0.328801 238 208 1
-1.48542 0.0968824 0.533476 238 208 1
-1.49394 0.0764681 0.53789 238 208 1
-0.65879 -0.643305 0.792533 238 208 1
-0.660337 -0.643371 0.81312 238 208 1
-0.660824 -0.701888 0.827447 238 208 1
-1.07231 -1.22201 1.01452 238 208 1
-0.674243 -0.642291 0.813163 238 208 1
-1.5122 0.0505245 0.560173 238 208 1
-0.66464 -0.564923 0.773599 238 208 1
-0.67996 -0.624345 0.814157 238 208 1
-1.02447 -1.22678 1.03184 238 208 1
-0.317085 -0.74845 -0.0789991 238 208 1
-0.312983 -0.862954 -0.100573 238 208 1
-0.816458 -0.545409 -0.190083 238 208 1
-0.794781 -0.543685 -0.156679 238 208 1
1.29817 -0.663754 1.91241 238 208 1
-0.5786 -1.0438 0.0769347 238 208 1
-0.180818 -0.715562 1.77369 238 208 1
0.521364 -0.744659 1.73424 238 208 1
-1.17715 -0.822779 0.731581 238 208 1
-0.539179 -0.283353 2.43229 238 208 1
-1.02304 -0.924075 1.05384 238 208 1
-0.880926 -0.477113 -0.0488297 238 208 1
-0.631393 -0.695173 0.619458 238 208 1
-0.996995 -0.530468 -0.113324 238 208 1
-0.862405 -0.468722 -0.00766636 238 208 1
-0.930308 -0.492923 -0.0465807 238 208 1
-0.916193 -0.478475 -0.0221848 238 208 1
-1.25962 -0.483466 0.651474 238 208 1
-0.308053 -0.550559 1.88634 238 208 1
-0.101564 -0.665224 1.79378 238 208 1
0.599458 -0.624224 2.95185 238 208 1
-1.37473 -0.123483 0.732653 238 208 1
-0.202362 -0.558055 1.97293 238 208 1
-1.47748 0.568324 0.491697 238 208 1
0.739383 -0.686036 2.63107 238 208 1
-0.639003 -0.865357 0.452327 238 208 1
-0.764053 -0.142581 2.21443 238 208 1
0.379888 -0.697751 3.01361 238 208 1
-1.35522 -0.1816 0.748032 238 208 1
-0.63321 -0.768057 0.592935 238 208 1
-1.61868 -0.223576 0.293974 238 208 1
-0.527308 -0.639589 0.609114 238 208 1
-0.7219 -0.825672 0.693683 238 208 1
-1.62014 -0.204531 0.291801 238 208 1
-1.62094 -0.242201 0.29634 238 208 1
-1.61616 -0.143695 0.293673 238 208 1
-1.59966 -0.243375 0.310991 238 208 1
1.19707 -0.76309 2.4565 238 208 1
-0.528147 -0.603242 0.613052 238 208 1
-1.61146 0.0484245 0.246888 238 208 1
-0.529975 -0.588141 0.613194 238 208 1
-0.997157 -0.681711 1.21161 238 208 1
-1.57124 -0.297227 0.345422 238 208 1
-0.550265 -0.676788 0.628801 238 208 1
-0.561374 -0.0837711 2.37286 238 208 1
-0.547559 -0.525849 0.604313 238 208 1
-0.942634 -0.70298 1.11238 238 208 1
-0.9796 -0.802549 1.15235 238 208 1
-1.61462 -0.26225 0.391893 238 208 1
-0.545747 -0.684031 0.670498 238 208 1
-0.550125 -0.695457 0.672098 238 208 1
-1.61612 -0.222932 0.412578 238 208 1
-0.501712 -0.981656 0.337326 238 208 1
-0.800189 -0.143435 2.21235 238 208 1
-1.62986 -0.124109 0.408305 238 208 1
0.13873 -0.359535 2.1654 238 208 1
-1.61407 -0.00291311 0.393478 238 208 1
-1.61581 0.0361269 0.392326 238 208 1
-1.54069 -0.221141 0.472101 238 208 1
-1.44236 -0.242934 0.491362 238 208 1
-0.519543 -0.803843 1.49308 238 208 1
-0.679766 -0.78353 0.772032 238 208 1
-0.659961 -0.782635 0.772375 238 208 1
-0.658896 -0.763187 0.772031 238 208 1
-0.0622505 -0.606348 1.92967 238 208 1
-0.707172 -0.321716 2.27869 238 208 1
-0.67295 -0.820822 0.789644 238 208 1
-0.261609 -0.640953 1.99229 238 208 1
-0.640715 -0.643085 0.792388 238 208 1
0.0788578 -0.704379 1.73153 238 208 1
0.630213 -0.570911 2.25055 238 208 1
0.7039 -0.242541 -0.250606 238 208 1
-0.639644 -0.584008 0.791743 238 208 1
-0.643528 -0.563022 -0.311212 238 208 1
0.66182 -0.439965 -0.225747 238 208 1
-0.620456 -0.963906 0.454211 238 208 1
-0.586906 -0.808516 0.471722 238 208 1
-0.580749 -0.823066 0.473476 238 208 1
-0.599865 -0.798876 0.493587 238 208 1
-0.641306 -0.943194 0.512691 238 208 1
-0.638 -0.982804 0.513155 238 208 1
0.939614 -0.743122 2.37227 238 208 1
-0.602035 -0.42361 2.35519 238 208 1
-0.640627 -0.844157 0.5347 238 208 1
0.781021 -0.718169 2.51102 238 208 1
-0.64139 -0.823427 0.552709 238 208 1
-0.656277 -0.806474 0.573908 238 208 1
-1.59592 -0.296402 0.270178 238 208 1
-0.656035 -0.788646 0.59424 238 208 1
1.49799 -0.782574 1.90914 238 208 1
-1.66335 -0.265553 0.293785 238 208 1
-1.5979 -0.294236 0.312932 238 208 1
-0.760952 -0.42416 2.19207 238 208 1
-1.61983 -0.282898 0.329148 238 208 1
-0.67125 -0.810292 0.634352 238 208 1
-1.70288 -0.222017 0.310792 238 208 1
-1.66174 -0.263685 0.332679 238 208 1
-1.68068 -0.244533 0.327563 238 208 1
-1.67952 -0.259086 0.326753 238 208 1
0.179242 -0.524279 1.79268 238 208 1
-1.64971 -0.277186 0.345207 238 208 1
-1.70746 -0.204197 0.331664 238 208 1
-0.301391 -0.783173 1.39203 238 208 1
0.879177 -0.761467 2.2715 238 208 1
-1.70558 -0.205982 0.350446 238 208 1
1.57961 -0.702631 2.09394 238 208 1
-1.70047 -0.221462 0.35199 238 208 1
-0.305987 -0.494626 2.01157 238 208 1
0.260253 -0.582063 1.62001 238 208 1
-0.340605 -0.685048 1.71275 238 208 1
0.739043 -0.715095 2.57394 238 208 1
1.65941 -0.713685 2.05813 238 208 1
-1.184 -0.583221 0.63631 238 208 1
-1.51427 -0.260074 0.466988 238 208 1
-1.51327 -0.0232919 0.467835 238 208 1
-1.45711 -0.0214115 0.51684 238 208 1
-1.45904 -0.0634944 0.533838 238 208 1
-0.658942 -0.622905 0.771791 238 208 1
1.40212 -0.628025 2.11486 238 208 1
-1.03563 -0.859675 0.988551 238 208 1
-1.52368 -0.064817 0.569463 238 208 1
-1.54094 0.0141334 0.536681 238 208 1
-1.51696 -0.0267672 0.555904 238 208 1
-1.51666 -0.11283 0.585096 238 208 1
-0.657891 -0.623651 0.792702 238 208 1
-1.43719 -0.499267 0.355949 238 208 1
-1.55535 -0.0225897 0.558152 238 208 1
-1.53763 -0.0298025 0.57349 238 208 1
-1.55341 -0.0402664 0.56511 238 208 1
-1.53411 -0.143115 0.607235 238 208 1
-0.643991 -0.663016 0.810512 238 208 1
-0.60606 -0.582036 0.665692 238 208 1
-0.642046 -0.643092 0.811064 238 208 1
-0.662382 -0.583504 0.793975 238 208 1
0.459895 -0.501583 1.89252 238 208 1
-0.660188 -0.604569 0.810832 238 208 1
-0.659619 -0.58304 0.813451 238 208 1
-1.35858 0.636472 0.591572 238 208 1
0.0797413 -0.62465 1.59389 238 208 1
0.620334 -0.717539 2.73443 238 208 1
-0.361984 -0.591312 0.00998326 238 208 1
-0.420574 -0.592308 -0.0456973 238 208 1
-0.433651 -0.592975 -0.0549136 238 208 1
-0.448489 -0.940131 0.405823 238 208 1
-0.411742 -0.592911 -0.0122987 238 208 1
-0.395984 -0.592915 0.00571262 238 208 1
0.896604 -0.504682 -0.0481483 238 208 1
-0.382691 -0.605631 0.0503976 238 208 1
-0.504877 -0.590684 0.0326859 238 208 1
-0.441052 -0.605757 0.0880258 238 208 1
-0.503872 -0.591609 0.0490044 238 208 1
-0.520469 -0.588942 0.0480177 238 208 1
-0.480538 -0.59865 0.0935038 238 208 1
-0.464336 -0.607215 0.107245 238 208 1
-0.481978 -0.604308 0.112988 238 208 1
-0.521034 -0.602318 0.0923471 238 208 1
-0.531795 -0.690952 0.0603554 238 208 1
-0.539368 -0.604045 0.0922807 238 208 1
-0.916913 -0.822581 1.23082 238 208 1
0.940905 -0.342078 0.152723 238 208 1
-0.519774 -0.602915 0.112588 238 208 1
-0.520295 -0.607157 0.132879 238 208 1
-1.13811 -0.683482 0.730554 238 208 1
-0.822214 -0.469534 -0.045423 238 208 1
-0.54067 -0.611712 0.145262 238 208 1
-0.937595 -0.47274 0.026303 238 208 1
0.823298 -0.464138 0.17347 238 208 1
-0.418509 -0.883471 0.408249 238 208 1
-0.418302 -0.864516 0.407955 238 208 1
-0.423737 -0.901857 0.404021 238 208 1
-0.443348 -0.843715 0.406889 238 208 1
-0.441967 -0.863944 0.40778 238 208 1
-0.445294 -0.922048 0.409947 238 208 1
0.329737 -0.876572 1.461 238 208 1
0.71208 0.101368 -0.148405 238 208 1
-0.546674 -0.782517 0.524138 238 208 1
-1.67597 -0.260351 0.27504 238 208 1
-1.65748 -0.277373 0.312459 238 208 1
-1.69564 -0.241511 0.31281 238 208 1
-0.632963 -0.866917 0.659832 238 208 1
-1.71315 -0.220195 0.315193 238 208 1
-1.71682 -0.241335 0.331523 238 208 1
-1.70811 -0.244773 0.350012 238 208 1
-0.92887 -0.686418 1.17387 238 208 1
-0.701735 -0.203911 2.33369 238 208 1
-0.524622 -0.583221 0.691435 238 208 1
-1.44066 -0.24233 0.532412 238 208 1
-1.46131 -0.223622 0.53227 238 208 1
-0.520584 -0.539878 0.702987 238 208 1
-0.525017 -0.504085 0.705693 238 208 1
-0.583 -0.562496 0.730685 238 208 1
-0.509832 -0.464596 0.704285 238 208 1
0.639122 -0.604742 2.97303 238 208 1
-0.566753 -0.541961 0.754755 238 208 1
-0.567164 -0.583886 0.773333 238 208 1
-0.934076 -1.18019 0.969518 238 208 1
-1.47646 -0.20735 0.620187 238 208 1
0.498777 -0.71485 2.85209 238 208 1
-0.941897 -1.14939 0.96121 238 208 1
-1.16685 -0.639958 0.639848 238 208 1
-0.938515 -1.16228 0.970376 238 208 1
-0.920985 -1.22331 0.995213 238 208 1
-0.560599 -0.543779 0.772638 238 208 1
-0.940369 -1.14422 0.974057 238 208 1
-0.937039 -1.14077 0.993961 238 208 1
-0.919863 -1.18345 1.01333 238 208 1
-0.980366 -1.18423 1.06907 238 208 1
-0.923682 -1.14831 0.995348 238 208 1
-0.923614 -1.14659 1.01362 238 208 1
-0.941493 -1.12412 1.0131 238 208 1
-0.906483 -1.20641 1.03178 238 208 1
-0.260818 -0.544105 2.00946 238 208 1
-0.938816 -1.14322 1.01244 238 208 1
-0.923598 -1.16475 1.03198 238 208 1
-0.505315 -0.456115 0.760543 238 208 1
-0.925185 -1.14653 1.03089 238 208 1
1.13562 -0.67017 2.32418 238 208 1
-0.904878 -1.2064 1.0523 238 208 1
-0.676494 -0.577427 0.8007 238 208 1
-0.962841 -1.08565 1.01242 238 208 1
-1.35757 -0.202679 0.691617 238 208 1
-0.506683 -0.390408 0.745381 238 208 1
0.959824 -0.782287 2.37062 238 208 1
-0.9466 -1.10456 1.03164 238 208 1
-0.924267 -1.16475 1.05551 238 208 1
-0.995347 -0.700752 1.27131 238 208 1
-0.921482 -1.20196 1.05273 238 208 1
-0.28161 -1.0637 -0.0478202 238 208 1
-0.281425 -1.07956 -0.044441 238 208 1
-0.261051 -1.08261 -0.0465186 238 208 1
-0.26251 -1.06597 -0.0281281 238 208 1
-0.249166 -1.06304 -0.0285527 238 208 1
-0.228552 -1.09333 -0.0108936 238 208 1
-0.262674 -1.08055 -0.0273774 238 208 1
-0.260537 -1.08337 -0.00693236 238 208 1
-0.919928 -0.963615 1.21252 238 208 1
-0.281585 -1.08329 -0.00912844 238 208 1
-0.686396 -0.569228 -0.222271 238 208 1
-0.715404 -0.570131 -0.222686 238 208 1
-0.741125 -0.452203 -0.0279382 238 208 1
0.415156 -0.901698 1.52518 238 208 1
-0.80217 -0.471558 -0.0801437 238 208 1
-0.759254 -0.452 -0.0228126 238 208 1
-0.573371 -0.690876 0.0877811 238 208 1
-0.877427 -0.477124 -0.0605629 238 208 1
-0.594705 -1.0023 0.0677853 238 208 1
0.538124 -0.523579 2.17238 238 208 1
0.291855 -0.452459 1.81376 238 208 1
-1.1446 -0.687558 0.710765 238 208 1
-1.03368 -0.555665 0.00725517 238 208 1
-0.94066 -0.94359 1.19327 238 208 1
0.579206 -0.582377 2.23096 238 208 1
-0.42651 -0.857462 0.434137 238 208 1
-0.433465 -0.841415 0.43935 238 208 1
1.059 -0.722686 2.75349 238 208 1
-0.624077 -0.922716 0.433187 238 208 1
-0.658614 -0.866099 0.457118 238 208 1
-0.559119 -0.643448 0.514254 238 208 1
-0.330784 -0.290156 -0.435096 238 208 1
-0.55433 -0.621232 0.515619 238 208 1
-0.555423 -0.583172 0.514991 238 208 1
-0.505595 -0.638384 0.586399 238 208 1
-1.61913 -0.296188 0.256297 238 208 1
-1.00144 -0.763861 1.15135 238 208 1
0.479213 -0.66381 3.13184 238 208 1
-0.020871 -0.542542 1.81266 238 208 1
0.13838 -0.425128 1.81209 238 208 1
-0.661154 -0.223041 2.37421 238 208 1
-1.46191 -0.283308 0.493068 238 208 1
-1.46173 -0.279155 0.509986 238 208 1
0.579772 -0.621879 2.93223 238 208 1
-1.00179 -1.20392 1.05042 238 208 1
0.556997 -0.622679 1.77614 238 208 1
-1.4671 -0.273992 0.572538 238 208 1
0.519269 -0.688345 2.71177 238 208 1
-1.45613 -0.273342 0.606774 238 208 1
-0.300302 -0.505667 2.05279 238 208 1
1.29709 -0.642418 2.17253 238 208 1
-1.33748 -0.261704 0.710339 238 208 1
-0.600755 -0.623763 0.539289 238 208 1
-0.581233 -0.567479 -0.143503 238 208 1
-0.28195 -1.04322 -0.0269211 238 208 1
-0.28028 -1.02491 -0.0113535 238 208 1
-0.26423 -1.04276 -0.00513001 238 208 1
-0.3397 -0.715293 1.87271 238 208 1
-0.245702 -1.06489 0.00617819 238 208 1
-0.606858 -0.553082 -0.16058 238 208 1
-0.260713 -1.06523 0.00663014 238 208 1
-0.280613 -1.0613 -0.00738516 238 208 1
-0.273611 -1.05841 0.0038908 238 208 1
-0.54898 -0.571524 -0.0783843 238 208 1
-0.274305 -1.1087 0.00413882 238 208 1
-0.31456 -1.12473 -0.00256073 238 208 1
-0.302578 -1.12716 0.0108062 238 208 1
-0.748755 -0.538387 -0.163303 238 208 1
-0.620983 -0.568093 -0.0518661 238 208 1
-0.708168 -0.502246 -0.102215 238 208 1
-0.70584 -0.519809 -0.102764 238 208 1
-0.602108 -0.591015 -0.00744271 238 208 1
-0.778067 -0.468777 -0.0849884 238 208 1
0.934499 0.455568 0.0758713 238 208 1
-0.860887 -0.4696 -0.0264555 238 208 1
0.458877 -0.504459 1.9528 238 208 1
0.81798 -0.399044 0.132602 238 208 1
0.904042 0.476656 0.0711543 238 208 1
-0.441039 -0.679049 -0.327058 238 208 1
-0.000906068 -0.703403 1.6925 238 208 1
0.91916 -0.710038 2.41729 238 208 1
-0.961166 -0.822811 1.19225 238 208 1
0.114143 -0.57753 1.66749 238 208 1
-0.427239 -0.83422 0.452557 238 208 1
-0.572055 -0.708009 0.518332 238 208 1
1.41882 -0.703976 2.17425 238 208 1
-1.04024 -0.902349 1.05529 238 208 1
-0.302146 -0.923528 -0.00669075 238 208 1
-0.616267 -0.54205 0.610194 238 208 1
-0.611604 -0.574977 0.611774 238 208 1
-0.618657 -0.523367 0.611513 238 208 1
-0.61652 -0.54336 0.628989 238 208 1
-0.616732 -0.522808 0.628663 238 208 1
-0.616742 -0.48229 0.629312 238 208 1
-0.615924 -0.463025 0.63024 238 208 1
1.52325 -0.843724 1.91681 238 208 1
-0.99989 -0.662116 1.15195 238 208 1
-1.5364 -0.241066 0.470393 238 208 1
-0.5757 -0.423799 0.64376 238 208 1
-0.717534 -0.797813 0.753304 238 208 1
-0.680501 -0.80372 0.771133 238 208 1
-0.601998 -0.48432 0.790554 238 208 1
-0.72529 -0.232781 0.702959 238 208 1
-0.876883 -0.470187 -0.042181 238 208 1
1.20055 -0.845406 2.45407 238 208 1
-0.605463 -0.870326 0.430122 238 208 1
0.138131 -0.330028 2.0365 238 208 1
-0.672823 -0.85232 0.476226 238 208 1
-0.599382 -0.42325 0.591389 238 208 1
0.839511 -0.74239 2.41306 238 208 1
-0.618552 -0.463356 0.612811 238 208 1
-0.703405 -0.763645 0.714851 238 208 1
-0.698128 -0.782707 0.729868 238 208 1
1.38031 -0.724921 2.17314 238 208 1
0.161719 -0.388793 2.19139 238 208 1
-0.502005 -0.843798 1.47268 238 208 1
-0.942399 -0.801841 1.29296 238 208 1
-0.624737 -0.720866 0.809938 238 208 1
-0.501189 -0.684062 1.5127 238 208 1
-0.955829 -1.15084 0.961582 238 208 1
-0.928836 -1.12309 0.975947 238 208 1
-0.910084 -1.18684 1.01932 238 208 1
-0.910646 -1.16874 1.01554 238 208 1
-0.59797 -0.525691 0.808475 238 208 1
-0.603102 -0.506349 0.806219 238 208 1
-0.909816 -1.1697 1.03252 238 208 1
-0.627113 -0.325462 0.745063 238 208 1
-0.622174 -0.384866 0.765394 238 208 1
-0.925427 -1.12669 1.02794 238 208 1
-0.766355 -0.566502 -0.245947 238 208 1
-0.743538 -0.571556 -0.238171 238 208 1
-0.301015 -1.10396 -0.00838024 238 208 1
0.479147 -0.524234 2.09209 238 208 1
-0.708004 -0.540022 -0.0986137 238 208 1
0.0996046 -0.441671 1.99272 238 208 1
-0.957933 -0.482477 -0.00161906 238 208 1
0.0991572 -0.686407 1.49288 238 208 1
-0.599281 -0.663094 0.593129 238 208 1
