ply
format ascii 1.0
comment Created by Open3D
element vertex 1389
property double x
property double y
property double z
property uchar red
property uchar green
property uchar blue
end_header
0.869984 -1.16768 0.450858 255 0 0
0.0703798 -0.506255 1.86571 255 0 0
1.64374 -1.38123 0.112017 255 0 0
3.82927 -1.32911 2.94784 255 0 0
3.58318 -0.51974 4.64375 255 0 0
0.0894836 -0.51519 1.82727 255 0 0
1.64118 -0.419431 4.14442 255 0 0
3.69027 -0.457132 1.97825 255 0 0
-0.680621 -1.28371 0.937986 255 0 0
-0.0410756 -0.471574 1.59959 255 0 0
-0.159327 -1.28889 0.9788 255 0 0
3.25107 -0.988411 3.0436 255 0 0
0.429261 1.20164 -0.341885 255 0 0
0.247998 -0.571764 2.64187 255 0 0
1.95425 -0.0828916 4.17395 255 0 0
0.589676 -1.43179 -0.139424 255 0 0
2.89428 -0.895427 1.61291 255 0 0
0.271958 -0.463678 2.40768 255 0 0
2.94202 -1.05791 2.41501 255 0 0
4.75028 -0.510537 3.22383 255 0 0
2.86951 -1.006 1.42559 255 0 0
1.88974 -0.184305 4.16125 255 0 0
3.3698 -0.451615 4.92505 255 0 0
1.5555 -1.24805 0.101317 255 0 0
1.82805 -0.130528 0.348343 255 0 0
2.97119 -0.131278 1.84344 255 0 0
0.268462 -1.11354 2.15102 255 0 0
-0.594381 -0.250434 1.92351 255 0 0
4.0086 -1.29758 3.55263 255 0 0
3.41416 -0.275822 5.32061 255 0 0
2.16495 -1.30181 3.15721 255 0 0
4.63994 -0.417422 3.41152 255 0 0
0.397569 -1.22895 0.219687 255 0 0
2.3536 -1.15052 3.3647 255 0 0
4.21156 -1.07181 2.71159 255 0 0
4.37944 -0.516607 2.71841 255 0 0
0.16228 -0.608348 1.18453 255 0 0
0.153919 -0.612407 1.16807 255 0 0
3.59042 -0.362203 2.11954 255 0 0
0.322093 -0.543323 1.58144 255 0 0
0.550151 -0.768007 -0.190854 255 0 0
0.350649 -0.853458 1.46444 255 0 0
0.353443 -0.869589 1.46372 255 0 0
0.351655 -0.882897 1.47891 255 0 0
0.351858 -0.912033 1.481 255 0 0
0.35109 -0.930574 1.48839 255 0 0
0.34959 -0.929027 1.46624 255 0 0
0.363507 -0.889826 1.48019 255 0 0
0.366341 -0.906703 1.48183 255 0 0
0.364821 -0.931503 1.48915 255 0 0
1.29359 -1.17368 3.11306 255 0 0
-0.0909938 -1.16882 2.44476 255 0 0
0.98948 -1.47849 0.359935 255 0 0
2.16662 -0.810657 2.84864 255 0 0
0.0326468 -0.50794 1.66558 255 0 0
1.88955 -0.682527 4.04253 255 0 0
1.62219 -1.39916 0.820663 255 0 0
3.47059 -1.21023 3.16497 255 0 0
2.15074 -0.657694 4.44616 255 0 0
2.67214 -0.572461 3.60574 255 0 0
0.344023 -0.893437 2.82726 255 0 0
0.0529394 -0.949032 2.12438 255 0 0
4.33682 -0.557993 2.69276 255 0 0
2.2937 -0.164381 4.23774 255 0 0
1.96824 -0.478626 3.87472 255 0 0
1.4914 -0.633746 3.26748 255 0 0
0.470318 -1.19166 2.88631 255 0 0
3.43843 -0.437179 4.7334 255 0 0
2.69109 -1.2327 2.42723 255 0 0
2.16615 -0.812869 0.692554 255 0 0
0.342922 -1.02496 2.83625 255 0 0
1.40768 -0.926792 0.10061 255 0 0
-0.0941511 -0.81744 2.14747 255 0 0
1.65084 -0.6889 0.28523 255 0 0
0.931003 -0.652435 -0.456982 255 0 0
1.95275 -1.25493 2.77441 255 0 0
2.06886 -1.19472 3.37401 255 0 0
1.96249 -0.49204 3.87928 255 0 0
0.130164 -1.01121 2.16624 255 0 0
-0.106158 -0.357781 1.93677 255 0 0
0.2724 -0.990324 2.48341 255 0 0
4.34282 -0.547925 3.93798 255 0 0
3.33112 -0.3557 4.90974 255 0 0
1.70476 -0.409889 4.16561 255 0 0
1.85365 -0.812449 0.221836 255 0 0
0.54539 -0.781008 1.59958 255 0 0
2.79089 -1.32874 2.10525 255 0 0
-0.678922 -1.2317 -0.588218 255 0 0
3.33289 -1.17121 3.02204 255 0 0
5.06458 -0.247922 3.08356 255 0 0
0.152839 -0.693074 1.76662 255 0 0
2.21115 -0.912953 3.30169 255 0 0
1.27698 -1.29197 0.652481 255 0 0
0.149056 -0.572489 1.16504 255 0 0
3.43225 -1.32475 3.02582 255 0 0
1.45287 -0.630229 -0.178947 255 0 0
0.332844 -1.01598 1.48149 255 0 0
-0.0673857 -0.51754 1.78346 255 0 0
0.331754 -0.86799 1.44498 255 0 0
1.81393 -0.845158 0.469105 255 0 0
0.952261 -0.957356 0.581549 255 0 0
4.32588 -0.861126 2.54427 255 0 0
0.364061 -0.853996 1.47141 255 0 0
0.353613 -1.0863 -0.310091 255 0 0
0.891337 -1.31801 -0.0210378 255 0 0
1.93134 -0.691057 4.00685 255 0 0
-0.0955967 -1.27259 2.44319 255 0 0
0.814081 -0.695153 -0.777796 255 0 0
0.00840362 -0.974461 2.06631 255 0 0
3.52908 -1.2901 3.78393 255 0 0
2.83741 -1.24187 2.28898 255 0 0
1.0994 -1.36146 0.0150854 255 0 0
3.64562 -1.18448 4.16022 255 0 0
0.288155 -0.831598 2.50951 255 0 0
1.45141 -0.323893 3.17958 255 0 0
-0.446507 -0.60805 2.14873 255 0 0
-0.205048 -0.60165 1.81679 255 0 0
0.950468 -1.31088 3.34598 255 0 0
1.99498 -0.471734 3.85831 255 0 0
3.41143 -0.970812 2.94576 255 0 0
1.64515 -0.304362 0.734969 255 0 0
2.31816 -1.33603 0.675069 255 0 0
1.64576 -0.750607 0.325211 255 0 0
0.850984 -1.31786 3.29924 255 0 0
3.9108 -1.00975 3.84404 255 0 0
0.971589 -1.2262 0.482158 255 0 0
1.74391 0.220317 0.286438 255 0 0
1.6845 -1.29698 3.00737 255 0 0
0.956818 -0.966033 0.65776 255 0 0
3.71024 -0.519139 4.40516 255 0 0
0.0924265 -0.47334 2.53994 255 0 0
2.91641 -1.10947 2.38685 255 0 0
0.968371 -1.01649 3.38313 255 0 0
-0.551085 -0.700147 2.07106 255 0 0
1.93992 -0.367754 3.90352 255 0 0
1.32785 -0.391347 3.68304 255 0 0
0.147409 -0.507327 1.1615 255 0 0
0.864389 -1.32567 -0.810272 255 0 0
0.400034 -0.626298 1.75154 255 0 0
0.369421 -0.626724 1.64152 255 0 0
0.380255 -0.618969 1.64857 255 0 0
1.86778 0.571968 0.925074 255 0 0
0.405141 -0.608606 1.68144 255 0 0
0.390667 -0.623817 1.64013 255 0 0
0.344904 -1.00919 1.42816 255 0 0
0.34502 -1.03224 1.42883 255 0 0
0.34531 -1.04629 1.42493 255 0 0
0.345822 -1.06819 1.42824 255 0 0
1.85432 -0.392432 0.091845 255 0 0
0.403298 -0.623218 1.63881 255 0 0
0.0867124 -1.09142 2.0496 255 0 0
0.430593 -0.710565 1.67154 255 0 0
0.434251 -0.646495 1.61328 255 0 0
2.01588 -1.22642 3.47765 255 0 0
3.00754 -0.412947 1.62408 255 0 0
1.48791 -1.27902 0.00337085 255 0 0
4.64729 -0.582178 3.6005 255 0 0
0.49682 -0.764773 1.55333 255 0 0
0.386063 -0.90947 0.105644 255 0 0
0.509795 -0.76266 1.56549 255 0 0
3.40571 -1.12636 2.94178 255 0 0
2.5578 -0.401493 3.43002 255 0 0
0.288087 -1.23247 2.00674 255 0 0
2.42547 -1.40212 3.32157 255 0 0
0.213662 -0.568842 2.52423 255 0 0
1.62845 -0.687553 0.651112 255 0 0
3.32432 -1.32447 2.95483 255 0 0
1.57348 -0.48935 4.04742 255 0 0
1.79057 0.469857 0.371845 255 0 0
3.0282 -1.19092 2.28437 255 0 0
1.56007 -0.781405 -0.115513 255 0 0
0.211643 -0.849681 2.70345 255 0 0
1.35561 -0.56858 2.86032 255 0 0
0.206104 -0.627464 1.77387 255 0 0
0.349219 1.1918 -0.318615 255 0 0
1.16833 -1.29283 0.221987 255 0 0
-0.570798 -0.753124 2.08827 255 0 0
-0.723104 -0.233569 1.88913 255 0 0
-0.708814 -0.19191 1.88479 255 0 0
2.67824 -1.13254 2.20448 255 0 0
-0.505978 -0.681354 2.03161 255 0 0
-0.370427 -0.191032 1.74307 255 0 0
-0.352725 -0.187026 1.75872 255 0 0
-0.341642 -0.190106 1.75353 255 0 0
0.975927 -0.809266 3.6598 255 0 0
0.095779 -0.490771 2.57714 255 0 0
1.16087 -1.22125 3.21301 255 0 0
1.37448 -0.830767 0.0515073 255 0 0
3.79427 -0.60419 4.4672 255 0 0
-0.485091 -1.14549 0.950516 255 0 0
0.751052 -0.930145 -0.780035 255 0 0
1.8756 -1.40672 3.38259 255 0 0
0.291159 -0.790996 2.52375 255 0 0
2.27418 -0.125748 4.51227 255 0 0
3.29221 -0.493967 4.72581 255 0 0
1.82396 -0.754204 0.12156 255 0 0
1.6988 -1.3128 0.216424 255 0 0
4.01033 -1.13057 3.70422 255 0 0
3.15061 -0.118108 1.76863 255 0 0
1.29049 -1.33076 0.766633 255 0 0
0.157264 -0.594308 1.18312 255 0 0
4.61528 -1.31505 2.78563 255 0 0
1.41091 -1.21796 0.0302948 255 0 0
1.99827 -0.368865 0.426409 255 0 0
-0.0945466 -0.432552 1.7439 255 0 0
0.331182 -0.537721 1.5936 255 0 0
2.15175 -0.131463 0.842786 255 0 0
1.3922 -0.275232 3.71482 255 0 0
1.55141 -0.851383 0.526385 255 0 0
1.92504 -0.210568 0.448585 255 0 0
0.980521 -1.16173 3.53892 255 0 0
1.296 -1.23012 0.629575 255 0 0
3.98686 -1.17763 3.61044 255 0 0
1.08847 -1.27458 0.391753 255 0 0
3.36572 -1.34958 2.37907 255 0 0
1.0305 -1.23821 0.502141 255 0 0
3.82986 -0.570651 4.40572 255 0 0
1.74676 -0.463296 4.10516 255 0 0
4.06765 -1.25888 3.68751 255 0 0
1.12432 -1.23935 -0.0486566 255 0 0
2.88335 -0.879868 4.05661 255 0 0
1.10574 -1.16165 3.29952 255 0 0
2.1113 0.207463 0.843342 255 0 0
0.632505 -1.17002 -0.570395 255 0 0
2.15075 -0.686834 4.44691 255 0 0
2.454 -0.751314 2.08736 255 0 0
0.575886 -0.696562 -0.967103 255 0 0
4.63436 -0.710455 3.1055 255 0 0
2.54206 -1.11164 2.16307 255 0 0
0.278794 -1.17218 2.00701 255 0 0
0.288137 -1.1876 1.82556 255 0 0
2.00482 -0.350992 0.485618 255 0 0
4.18338 -0.895681 2.94118 255 0 0
1.75639 0.43275 0.460461 255 0 0
-0.470567 -0.283947 1.71824 255 0 0
2.26911 -0.494297 0.827921 255 0 0
0.436676 -1.22646 1.8507 255 0 0
0.850732 -0.692829 -0.255806 255 0 0
4.72953 -0.374683 3.36977 255 0 0
-0.636315 -0.153615 1.94401 255 0 0
2.83034 -1.2575 2.1994 255 0 0
-0.0891552 -0.338775 1.93833 255 0 0
3.57428 -0.497872 4.63505 255 0 0
1.70718 -0.0176921 0.642972 255 0 0
-0.0489471 -0.832781 2.52191 255 0 0
-0.32423 -0.913336 0.997427 255 0 0
1.40882 -0.569997 2.82186 255 0 0
1.83006 0.568227 0.88653 255 0 0
4.90062 -0.279985 3.67534 255 0 0
1.02116 -0.566598 -0.607124 255 0 0
2.13356 -1.07227 3.14997 255 0 0
2.79116 -1.24329 1.91793 255 0 0
-0.308893 -0.912134 1.82731 255 0 0
0.993684 -0.622498 -0.326638 255 0 0
0.916289 -1.02556 3.14055 255 0 0
0.0923407 -1.0303 2.08436 255 0 0
-0.705079 -1.1887 -0.630318 255 0 0
1.97705 -0.91274 2.77769 255 0 0
-0.431399 -1.29868 1.21262 255 0 0
4.54881 -0.311182 3.60436 255 0 0
1.79423 -1.01334 3.67263 255 0 0
2.58811 -1.23008 3.73291 255 0 0
1.43736 -0.836975 0.459786 255 0 0
2.10322 0.303243 0.886464 255 0 0
3.08836 -0.497244 1.58392 255 0 0
3.32296 -1.40737 2.25551 255 0 0
0.337475 -1.21128 1.44149 255 0 0
0.346372 -1.24902 1.4463 255 0 0
0.344522 -1.26857 1.45163 255 0 0
1.22067 -0.780762 -0.0324742 255 0 0
1.05186 -1.25386 0.222715 255 0 0
4.30059 -0.497472 3.89245 255 0 0
0.388158 -1.29946 1.52473 255 0 0
-0.792709 -0.391111 1.84565 255 0 0
4.60551 -0.692149 3.14215 255 0 0
1.8526 -0.184552 4.16212 255 0 0
1.95059 -1.31376 3.17528 255 0 0
2.0527 -0.569593 0.40746 255 0 0
0.179956 -0.502576 2.68309 255 0 0
5.11185 -0.356424 3.24651 255 0 0
-0.0302093 -1.1659 2.37453 255 0 0
1.71021 -1.2119 3.09211 255 0 0
-0.492091 -0.306345 2.13459 255 0 0
0.00973427 -0.937434 2.112 255 0 0
2.0719 -1.32399 3.10515 255 0 0
0.283063 -0.671886 2.70073 255 0 0
2.04728 -1.29263 2.83535 255 0 0
2.36076 -1.54159 3.35275 255 0 0
-0.0157599 -0.479561 1.54943 255 0 0
1.39312 -0.716552 0.25868 255 0 0
-0.407213 -1.25031 1.16701 255 0 0
1.52704 -0.358092 3.12624 255 0 0
0.00475003 -1.11309 2.36094 255 0 0
4.0259 -0.779737 2.4689 255 0 0
0.771487 -1.21069 3.2424 255 0 0
2.57702 -1.22516 3.81823 255 0 0
-0.0234753 -1.27183 1.19181 255 0 0
1.48992 -1.27236 3.14194 255 0 0
-0.335517 -0.0872141 1.59724 255 0 0
-0.528601 -1.33691 1.16977 255 0 0
1.74588 -0.50559 4.13422 255 0 0
0.590924 -1.42925 -0.188501 255 0 0
1.9903 -1.31412 3.09045 255 0 0
1.54225 -0.394994 3.08967 255 0 0
4.48511 -0.453676 4.01234 255 0 0
-0.344623 -0.412881 1.85038 255 0 0
1.79594 0.00965918 0.339466 255 0 0
3.08316 -0.463138 2.3705 255 0 0
-0.468183 -0.712314 2.02499 255 0 0
1.91645 -0.507107 3.92421 255 0 0
1.23197 -1.01917 0.256894 255 0 0
3.22322 -0.74721 1.54512 255 0 0
3.33227 -0.470759 4.96449 255 0 0
0.751238 -0.59189 -0.819227 255 0 0
1.69048 -0.96973 0.226345 255 0 0
-0.160743 -0.123269 1.33142 255 0 0
4.19217 -0.641195 2.58018 255 0 0
0.769795 -1.40602 -0.194065 255 0 0
-0.787971 -0.409786 1.82497 255 0 0
-0.793371 -0.350369 1.84625 255 0 0
1.50039 -0.78125 3.81761 255 0 0
2.92677 -0.967391 1.59288 255 0 0
1.98618 -1.30854 2.84793 255 0 0
0.910461 -0.994618 0.525494 255 0 0
2.62182 -1.3144 0.968676 255 0 0
1.96302 -0.926162 2.9458 255 0 0
-0.0532826 -0.397204 2.12866 255 0 0
0.227897 -0.605483 2.53821 255 0 0
2.14569 -0.933018 3.34451 255 0 0
0.467678 -1.27609 1.8809 255 0 0
1.77468 -1.13295 0.651355 255 0 0
3.55026 -0.510422 4.64467 255 0 0
0.246436 -1.1881 2.76678 255 0 0
1.72648 0.149638 0.285899 255 0 0
3.11551 -0.410262 2.28875 255 0 0
1.68026 -0.108208 0.673505 255 0 0
1.35381 -0.746373 -0.271409 255 0 0
1.68556 -1.04835 0.238764 255 0 0
1.28715 -1.31059 0.647452 255 0 0
0.0790645 -0.699042 1.8331 255 0 0
-0.785594 -0.411927 1.76559 255 0 0
0.979889 -0.9017 0.616195 255 0 0
2.92946 -0.940849 1.57419 255 0 0
2.55296 -1.25738 2.38526 255 0 0
-0.136623 -0.416419 1.85472 255 0 0
0.101218 -0.960648 2.19519 255 0 0
-0.105946 -0.784737 2.22429 255 0 0
2.49565 -0.0743526 4.40478 255 0 0
2.90958 -1.2493 3.56451 255 0 0
4.01019 -0.942702 3.74313 255 0 0
-0.210905 -0.633441 1.83028 255 0 0
0.170638 -1.14984 1.22652 255 0 0
0.182738 -1.17236 1.22791 255 0 0
0.186441 -1.23103 1.24977 255 0 0
0.186991 -1.25228 1.25011 255 0 0
2.5671 -0.988334 2.34374 255 0 0
0.206659 -1.27022 1.27211 255 0 0
0.212902 -1.29151 1.28492 255 0 0
0.206125 -1.29053 1.26984 255 0 0
2.66898 -1.31723 1.12174 255 0 0
0.22841 -1.31105 1.28918 255 0 0
2.84578 -1.05122 1.6843 255 0 0
3.5915 -0.455369 5.5708 255 0 0
0.231995 -1.29136 1.30608 255 0 0
0.231384 -1.31127 1.30649 255 0 0
1.70834 -0.432179 3.52603 255 0 0
-0.458075 -0.719852 2.01689 255 0 0
0.403201 -0.91088 0.207282 255 0 0
0.250754 -1.29098 1.32492 255 0 0
0.247809 -1.31204 1.30996 255 0 0
1.68551 -1.2822 0.0685512 255 0 0
0.267449 -1.29051 1.33199 255 0 0
0.267565 -1.31139 1.33007 255 0 0
0.195336 -1.08149 2.13646 255 0 0
3.04541 -0.610683 1.4663 255 0 0
0.272337 -1.33019 1.3467 255 0 0
2.54392 -0.59473 1.75756 255 0 0
0.291322 -1.29027 1.36595 255 0 0
0.767876 -1.41653 -0.134712 255 0 0
0.314053 -1.25014 1.40299 255 0 0
0.327132 -1.31023 1.40397 255 0 0
0.148201 -0.22846 1.18465 255 0 0
2.12789 -0.269741 0.865057 255 0 0
0.327786 -1.17029 1.40868 255 0 0
0.328405 -1.21089 1.40668 255 0 0
0.329718 -1.23136 1.40756 255 0 0
0.33266 -1.27097 1.42347 255 0 0
0.333599 -1.1898 1.42516 255 0 0
0.343599 -1.20868 1.42764 255 0 0
0.331286 -1.11041 1.42279 255 0 0
0.343483 -1.15256 1.43991 255 0 0
2.67239 -1.15399 2.20758 255 0 0
0.349612 -1.03153 1.44161 255 0 0
3.71211 -0.533125 4.48697 255 0 0
3.67615 -0.45828 4.58948 255 0 0
2.96737 -0.783362 1.54629 255 0 0
0.347531 -0.927527 1.44589 255 0 0
1.53017 -1.43113 0.285821 255 0 0
1.87081 -1.16172 3.0591 255 0 0
1.28601 -1.31111 0.686015 255 0 0
4.61996 -0.31752 3.46661 255 0 0
3.1993 -0.677375 4.69365 255 0 0
2.28758 -1.32343 3.34816 255 0 0
2.92872 -1.25304 3.54843 255 0 0
1.49109 -1.35397 0.947022 255 0 0
2.15038 -0.687002 4.48327 255 0 0
2.00965 -0.136134 4.1976 255 0 0
0.3289 -1.29103 0.0485945 255 0 0
3.10477 -0.515203 1.60719 255 0 0
1.46031 -1.24482 -0.0410916 255 0 0
2.1258 -0.4912 0.325374 255 0 0
1.93866 -1.27351 2.80042 255 0 0
3.40925 -0.291313 5.12709 255 0 0
2.62444 -0.784333 4.28489 255 0 0
1.41301 -0.268409 3.77769 255 0 0
2.67986 -1.13967 1.79174 255 0 0
4.60248 -0.565637 3.65757 255 0 0
-0.30333 -0.787916 0.850059 255 0 0
-0.290354 -0.791588 0.865359 255 0 0
-0.283205 -0.798063 0.876385 255 0 0
-0.282568 -0.815665 0.877873 255 0 0
-0.269867 -0.811692 0.88513 255 0 0
-0.279375 -0.832197 0.879154 255 0 0
-0.26869 -0.832691 0.887388 255 0 0
0.0642039 -1.05206 2.05195 255 0 0
3.92402 -1.06815 2.96028 255 0 0
0.0319071 -0.532429 1.82468 255 0 0
1.87698 -1.29203 3.12994 255 0 0
4.33479 -0.5306 2.70999 255 0 0
-0.0558314 -0.296496 1.83357 255 0 0
-0.0566385 -0.309514 1.81322 255 0 0
-0.0434487 -0.296662 1.86149 255 0 0
2.38972 -1.27112 0.604394 255 0 0
-0.0277255 -1.29277 1.19206 255 0 0
2.49953 -0.884586 2.11987 255 0 0
1.4588 -1.32914 0.293178 255 0 0
-0.0277996 -1.21105 1.20697 255 0 0
-0.028618 -1.23035 1.2067 255 0 0
-0.0274174 -1.28895 1.20178 255 0 0
-0.0290619 -1.30943 1.20028 255 0 0
-0.0245059 -1.33029 1.20845 255 0 0
-0.0242752 -1.19155 1.21918 255 0 0
-0.0239067 -1.21085 1.2186 255 0 0
-0.0226063 -1.24974 1.21893 255 0 0
-0.0169203 -1.19401 1.22113 255 0 0
3.85051 -0.51226 4.36571 255 0 0
4.91125 -0.509059 3.06475 255 0 0
2.05996 -0.213794 0.879183 255 0 0
1.77257 0.626893 0.647553 255 0 0
0.190883 -0.909115 2.42573 255 0 0
3.22565 -0.54258 5.01659 255 0 0
-0.00406207 -0.768285 2.01109 255 0 0
0.492676 -1.19088 2.90652 255 0 0
2.74036 -1.04884 4.00762 255 0 0
2.99278 -1.17818 3.995 255 0 0
0.72106 -1.31757 -0.0579525 255 0 0
0.353407 -1.21706 2.2085 255 0 0
4.27271 -0.594124 3.40832 255 0 0
-0.331678 -0.390999 1.68271 255 0 0
-0.350517 -0.413046 1.6971 255 0 0
0.569427 -0.430574 1.9854 255 0 0
0.157222 -1.26856 1.223 255 0 0
0.155006 -1.30926 1.22378 255 0 0
0.169477 -1.31023 1.22729 255 0 0
2.06714 0.323685 0.888327 255 0 0
0.153823 -1.15065 1.22493 255 0 0
0.155017 -1.16983 1.22586 255 0 0
0.170314 -1.21112 1.22489 255 0 0
0.1679 -1.23152 1.22681 255 0 0
0.1695 -1.25034 1.22587 255 0 0
0.171365 -1.27016 1.22792 255 0 0
0.170866 -1.28961 1.22794 255 0 0
0.175401 -1.15148 1.24375 255 0 0
0.194199 -1.27164 1.26375 255 0 0
1.39474 -0.902878 -0.221805 255 0 0
0.195048 -1.31192 1.26324 255 0 0
2.45534 -0.709672 4.42573 255 0 0
2.01837 -1.26296 3.44257 255 0 0
4.21779 -0.565344 2.57072 255 0 0
1.83267 -1.29368 3.19598 255 0 0
0.237787 -1.31384 1.34221 255 0 0
0.252655 -1.33078 1.34384 255 0 0
3.02724 -1.15182 2.29856 255 0 0
2.70986 -1.12723 2.08509 255 0 0
0.254184 -1.31024 1.34525 255 0 0
3.87257 -0.491408 4.36632 255 0 0
-0.0400912 -0.970826 1.8444 255 0 0
0.272602 -1.29191 1.36421 255 0 0
4.63279 -1.29514 2.67788 255 0 0
0.274062 -1.33104 1.3629 255 0 0
2.09611 -0.491777 0.38258 255 0 0
3.28278 -0.274819 4.95441 255 0 0
2.13309 -0.351414 0.384883 255 0 0
1.84638 -1.22644 3.08728 255 0 0
0.31675 -0.869327 2.4216 255 0 0
0.293712 -1.29239 1.38305 255 0 0
1.65562 -1.2333 0.17608 255 0 0
4.23202 -0.554906 3.5018 255 0 0
0.147747 -0.527372 1.16372 255 0 0
0.324926 -1.28937 1.39385 255 0 0
0.222327 -1.27184 1.80184 255 0 0
1.71627 0.389639 0.545438 255 0 0
1.95063 -0.459217 3.89736 255 0 0
4.28068 -0.556398 2.8189 255 0 0
2.25215 -1.30924 3.48426 255 0 0
0.342297 -1.24833 1.41862 255 0 0
0.344495 -1.27058 1.42626 255 0 0
1.65525 -1.25093 2.89885 255 0 0
0.152884 -0.283894 1.20127 255 0 0
0.34839 -1.16518 1.43285 255 0 0
0.34811 -0.970256 1.44589 255 0 0
-0.786846 -0.411078 1.80463 255 0 0
0.347386 -0.892625 1.4453 255 0 0
2.67173 -1.08692 2.12125 255 0 0
0.0754444 -0.587606 1.76296 255 0 0
-0.211403 -0.885945 1.89094 255 0 0
2.09015 0.312371 0.902566 255 0 0
-0.484494 -0.208873 1.79858 255 0 0
3.15659 -0.725407 4.7328 255 0 0
1.09744 -0.843197 0.321618 255 0 0
4.08825 -0.905167 3.02166 255 0 0
0.801751 -1.42979 -0.687331 255 0 0
4.98797 -0.310281 3.06924 255 0 0
0.141596 -0.193256 1.29477 255 0 0
0.330527 -1.293 1.60586 255 0 0
1.76316 0.459934 0.471829 255 0 0
0.852123 -1.2473 3.34773 255 0 0
1.82986 -0.653783 0.178537 255 0 0
2.03858 -0.475142 0.35703 255 0 0
0.077318 -1.00737 2.64778 255 0 0
2.63285 -1.27258 2.38076 255 0 0
1.54915 -0.75129 3.86802 255 0 0
2.69322 -1.28863 4.00742 255 0 0
4.29132 -0.743535 2.53239 255 0 0
0.285804 -1.19176 2.00991 255 0 0
2.06872 -1.26737 3.36746 255 0 0
-0.360473 -0.565277 1.59418 255 0 0
4.19617 -0.633179 2.58534 255 0 0
3.58829 -0.551279 2.00355 255 0 0
1.91036 -1.31108 3.16677 255 0 0
-0.860768 -0.412136 1.79003 255 0 0
0.933301 -1.43028 -0.77791 255 0 0
3.12591 -0.736962 4.81438 255 0 0
3.8086 -0.568523 1.9825 255 0 0
1.48584 -1.17326 2.96843 255 0 0
1.86421 -0.936656 2.89904 255 0 0
0.788591 -0.76189 0.50228 255 0 0
3.71448 -0.568276 1.81024 255 0 0
-0.507928 -0.194472 1.78853 255 0 0
-0.300959 -0.801614 0.85543 255 0 0
-0.304159 -0.895621 0.872998 255 0 0
-0.304579 -0.90525 0.873613 255 0 0
-0.287387 -0.829554 0.870612 255 0 0
-0.296633 -0.911903 0.872359 255 0 0
-0.272503 -0.789822 0.871811 255 0 0
-0.278205 -0.809498 0.873123 255 0 0
-0.38106 -0.221929 1.94831 255 0 0
-0.27394 -0.891889 0.888657 255 0 0
-0.274895 -0.911696 0.888602 255 0 0
-0.260886 -0.870263 0.896332 255 0 0
-0.426163 -0.491362 2.18509 255 0 0
3.04734 -0.570289 1.62596 255 0 0
1.538 -0.0319764 4.21386 255 0 0
3.3526 -0.390472 4.84488 255 0 0
1.68647 -1.17693 0.693142 255 0 0
4.25921 -0.556602 2.58494 255 0 0
0.0509302 -1.07036 2.03381 255 0 0
-0.111582 -0.293556 2.40745 255 0 0
1.59277 -0.350034 3.67759 255 0 0
0.927323 -1.01357 3.33052 255 0 0
-0.0647242 -1.25231 1.06105 255 0 0
1.52694 -0.73543 3.84893 255 0 0
-0.0592725 -1.26521 1.0774 255 0 0
3.55102 -0.387921 2.18911 255 0 0
3.20974 -0.74628 1.38337 255 0 0
-0.0470102 -1.23123 1.08369 255 0 0
-0.0446305 -1.23157 1.09817 255 0 0
1.09424 -1.16409 3.30181 255 0 0
1.02907 0.468934 -0.371956 255 0 0
1.2928 -0.848068 0.0396945 255 0 0
0.0112556 -1.27116 1.18389 255 0 0
0.010732 -1.29106 1.18372 255 0 0
-0.402059 -0.669335 1.86961 255 0 0
0.189031 -0.869474 2.62734 255 0 0
3.81089 -1.32097 3.00309 255 0 0
-0.358656 -1.17056 1.1918 255 0 0
0.0302274 -1.29054 1.16445 255 0 0
0.768019 -1.22508 3.23974 255 0 0
2.05162 -0.7704 3.22204 255 0 0
0.0448676 -1.29088 1.16092 255 0 0
0.0515382 -1.2906 1.14579 255 0 0
1.63272 -1.19933 0.100678 255 0 0
0.00998038 -0.530746 1.76528 255 0 0
1.69646 -1.33726 0.0768709 255 0 0
2.49574 -1.20693 1.10243 255 0 0
0.0667704 -1.30997 1.1393 255 0 0
0.0731405 -1.27143 1.12697 255 0 0
0.0724172 -1.29103 1.12733 255 0 0
2.15089 0.722923 0.558491 255 0 0
3.80504 -0.584275 4.48123 255 0 0
0.0896245 -1.27049 1.12309 255 0 0
0.089976 -1.29072 1.12274 255 0 0
2.08434 -0.603647 0.356582 255 0 0
0.304768 -1.26595 1.95757 255 0 0
2.21227 0.887121 0.504521 255 0 0
0.110769 -1.25128 1.12076 255 0 0
0.111467 -1.27097 1.12091 255 0 0
0.111137 -1.29029 1.11988 255 0 0
0.1118 -1.31047 1.12028 255 0 0
3.19648 -0.956534 3.031 255 0 0
0.129697 -1.31151 1.12417 255 0 0
1.37914 -0.495813 0.179091 255 0 0
0.128866 -1.27096 1.12309 255 0 0
1.81443 -0.565336 0.062377 255 0 0
1.43448 -0.339965 3.74804 255 0 0
0.145292 -1.31456 1.1304 255 0 0
0.142805 -1.24768 1.13381 255 0 0
0.146216 -1.26861 1.1403 255 0 0
0.145458 -1.29145 1.14245 255 0 0
0.22019 -1.31264 1.31727 255 0 0
1.43136 -0.551584 3.40922 255 0 0
4.67247 -0.350266 3.46669 255 0 0
1.57336 -1.25005 0.111235 255 0 0
0.25688 -1.31314 1.36116 255 0 0
0.2563 -1.33159 1.35791 255 0 0
-0.48955 -0.683066 1.97723 255 0 0
2.91462 -1.17107 2.4043 255 0 0
0.374198 -0.664846 1.70706 255 0 0
0.388782 -0.336935 2.27421 255 0 0
1.71759 0.643565 0.5486 255 0 0
4.76765 -0.566155 3.42448 255 0 0
1.35342 -1.35025 0.861507 255 0 0
1.82052 -0.707021 0.162753 255 0 0
5.18519 -0.309281 3.24622 255 0 0
-0.306552 -1.25005 1.20147 255 0 0
3.97148 -0.942241 3.68601 255 0 0
0.323937 -1.32975 1.39016 255 0 0
3.95396 -1.24337 3.56156 255 0 0
3.45038 -1.28791 3.12779 255 0 0
0.0737126 -0.325449 1.38375 255 0 0
1.24276 -1.01271 0.157425 255 0 0
-0.507817 -0.710308 2.06613 255 0 0
1.9382 -0.385115 3.8782 255 0 0
1.38999 -0.31299 3.70019 255 0 0
0.33205 -1.12929 1.42437 255 0 0
0.333224 -1.17249 1.42492 255 0 0
0.330312 -1.05043 1.4244 255 0 0
0.348185 -1.16836 1.44116 255 0 0
0.347523 -1.05176 1.44256 255 0 0
2.74841 -1.17555 3.98102 255 0 0
1.72681 0.38949 0.280162 255 0 0
0.0930232 -1.02792 2.64827 255 0 0
4.06918 -0.5474 4.14553 255 0 0
1.99004 -1.31171 3.12876 255 0 0
2.72639 -0.972003 2.21168 255 0 0
3.07584 -0.248848 2.44539 255 0 0
1.372 -0.571416 0.204742 255 0 0
3.53004 -1.32315 2.84588 255 0 0
1.27723 -0.912859 -0.278574 255 0 0
-0.25678 -1.1729 0.976734 255 0 0
0.723796 -0.55566 -0.846747 255 0 0
2.54962 -1.24872 2.3255 255 0 0
2.08742 -1.31401 3.38547 255 0 0
3.19627 -0.754624 1.41013 255 0 0
3.69239 -0.470696 4.54359 255 0 0
4.23565 -1.04534 2.71407 255 0 0
2.95811 -1.15488 1.6084 255 0 0
2.9052 -0.550447 1.7185 255 0 0
0.707917 -1.15741 -0.453501 255 0 0
4.69613 -0.269022 3.43286 255 0 0
3.82801 -0.409141 1.94592 255 0 0
3.73111 -1.33192 2.70735 255 0 0
3.51128 -0.454782 4.74727 255 0 0
1.12405 -1.00667 0.293182 255 0 0
-0.56635 -0.390864 1.82069 255 0 0
-0.26863 -0.314587 1.7063 255 0 0
3.31131 -0.509873 5.02562 255 0 0
1.67069 -1.22873 0.146887 255 0 0
0.35567 -0.969957 1.45801 255 0 0
3.49513 -0.842754 3.07446 255 0 0
2.04923 -1.31986 3.10661 255 0 0
2.25708 -1.33597 0.747045 255 0 0
-0.541135 -1.26434 1.04143 255 0 0
-0.530438 -1.26741 1.04154 255 0 0
-0.536451 -1.25907 1.02555 255 0 0
-0.526614 -1.28099 1.04011 255 0 0
-0.406 -1.27276 1.16648 255 0 0
2.51528 -1.20747 1.11632 255 0 0
-0.387404 -1.29176 1.16495 255 0 0
-0.386621 -1.28899 1.17886 255 0 0
-0.370204 -1.2514 1.17001 255 0 0
-0.368458 -1.26955 1.18058 255 0 0
1.88776 -1.1504 3.06221 255 0 0
-0.368667 -1.23156 1.18425 255 0 0
-0.352515 -1.23199 1.18611 255 0 0
-0.434582 -0.235091 2.09739 255 0 0
-0.348403 -1.29142 1.20656 255 0 0
-0.307349 -1.35456 1.32604 255 0 0
4.40772 -0.755969 2.4638 255 0 0
0.219068 -0.703632 1.53529 255 0 0
3.03095 -0.930022 1.567 255 0 0
1.41667 -0.851045 -0.219756 255 0 0
3.15703 -1.31142 2.89781 255 0 0
-0.0909634 -1.27054 1.02468 255 0 0
-0.0841765 -1.27064 1.04126 255 0 0
-0.0684138 -1.27162 1.04478 255 0 0
-0.0635889 -1.28917 1.05936 255 0 0
-0.0683294 -1.31024 1.04434 255 0 0
-0.0481769 -1.25154 1.06357 255 0 0
-0.0487325 -1.29083 1.06382 255 0 0
-0.0480888 -1.31112 1.06343 255 0 0
-0.0326369 -1.22984 1.0837 255 0 0
-0.0319259 -1.25056 1.08286 255 0 0
-0.0313721 -1.27151 1.0845 255 0 0
-0.0337297 -0.297874 1.85829 255 0 0
-0.0237821 -1.27095 1.10209 255 0 0
2.49091 -0.387455 3.42739 255 0 0
0.0284896 -1.27064 1.18075 255 0 0
0.0266497 -1.28811 1.18245 255 0 0
0.890451 -1.21217 3.40717 255 0 0
1.45715 -0.513685 3.97131 255 0 0
0.13677 -1.27084 1.14014 255 0 0
0.135635 -1.29301 1.13959 255 0 0
0.136746 -1.2501 1.13938 255 0 0
0.169972 -1.17114 1.22323 255 0 0
0.195827 -1.25153 1.26467 255 0 0
0.215399 -1.32244 1.30184 255 0 0
0.275601 -1.30517 1.37855 255 0 0
0.293167 -1.33071 1.38222 255 0 0
0.313878 -1.29122 1.40244 255 0 0
0.315411 -1.27081 1.4039 255 0 0
0.347247 -1.22723 1.43478 255 0 0
0.34401 -1.07293 1.44022 255 0 0
0.349396 -1.01239 1.44087 255 0 0
0.361599 -0.882369 1.47139 255 0 0
0.290776 -1.17148 2.0456 255 0 0
2.18058 -1.31268 3.04504 255 0 0
0.205141 -1.03871 2.20067 255 0 0
4.25032 -0.529931 3.98484 255 0 0
0.595275 -0.584382 -0.675382 255 0 0
-0.458341 -0.530673 2.15238 255 0 0
2.33809 -1.40028 3.45631 255 0 0
4.42266 -0.433438 4.09808 255 0 0
4.31021 -1.03526 2.76145 255 0 0
2.65054 -1.35186 1.02441 255 0 0
-0.829743 -0.293762 1.82721 255 0 0
1.71118 -1.40942 -0.0720376 255 0 0
2.6185 -1.1398 4.27558 255 0 0
4.00761 -0.554569 4.3063 255 0 0
5.13524 -0.152112 3.2869 255 0 0
-0.466637 -0.637884 0.665108 255 0 0
2.796 -1.1818 1.73365 255 0 0
-0.562412 -1.17793 0.948182 255 0 0
-0.555557 -1.19188 0.956391 255 0 0
-0.700138 -0.177041 1.87037 255 0 0
-0.552753 -1.21617 0.978056 255 0 0
-0.541793 -1.25335 1.02639 255 0 0
-0.542036 -1.25215 1.04077 255 0 0
-0.529431 -1.27095 1.02695 255 0 0
-0.529701 -1.25535 1.04278 255 0 0
-0.50953 -1.26904 1.04553 255 0 0
-0.493082 -1.20413 1.0323 255 0 0
-0.490383 -1.21146 1.03925 255 0 0
-0.497738 -1.26619 1.04978 255 0 0
-0.430109 -1.23068 1.06599 255 0 0
-0.409982 -1.25782 1.09059 255 0 0
-0.384358 -1.26852 1.15009 255 0 0
-0.380566 -0.217162 1.80644 255 0 0
-0.332623 -1.25374 1.18737 255 0 0
-0.368585 -0.213313 1.82998 255 0 0
-0.334731 -1.2252 1.1891 255 0 0
-0.331712 -1.26938 1.20263 255 0 0
-0.331653 -1.29122 1.20211 255 0 0
-0.327781 -1.25312 1.20654 255 0 0
2.05671 -1.29169 3.36838 255 0 0
-0.1316 -1.27078 0.988313 255 0 0
-0.123993 -1.27128 1.00106 255 0 0
-0.123389 -1.29032 1.00058 255 0 0
-0.110167 -1.27062 1.00795 255 0 0
-0.110603 -1.29091 1.00697 255 0 0
-0.105069 -1.27128 1.02244 255 0 0
-0.0830598 -1.31062 1.04022 255 0 0
-0.0623308 -1.31219 1.05894 255 0 0
3.99031 -1.1787 3.62292 255 0 0
-0.051111 -0.539081 1.75347 255 0 0
1.05763 -0.963045 0.67336 255 0 0
1.78945 -0.951885 0.198841 255 0 0
1.83106 0.410021 0.504415 255 0 0
0.0924331 -1.27164 1.10959 255 0 0
0.110575 -1.3116 1.10916 255 0 0
0.109642 -1.27073 1.10958 255 0 0
3.12875 -0.430655 2.31099 255 0 0
0.125328 -1.27109 1.11174 255 0 0
0.14258 -1.2756 1.129 255 0 0
0.144648 -1.29357 1.12978 255 0 0
0.142052 -1.21942 1.13104 255 0 0
0.184668 -1.26802 1.23221 255 0 0
0.708889 -1.43899 -0.139485 255 0 0
0.183736 -1.19507 1.23364 255 0 0
0.217037 -1.26985 1.30099 255 0 0
0.934178 -0.558519 -0.695523 255 0 0
0.235307 -1.29028 1.32263 255 0 0
0.234996 -1.3131 1.32392 255 0 0
4.62806 -1.28015 2.66158 255 0 0
0.235382 -1.32937 1.32217 255 0 0
2.25034 -1.32997 3.42798 255 0 0
-0.296097 -1.08132 1.01721 255 0 0
0.123584 -0.393854 1.32539 255 0 0
0.222509 -1.28421 1.70399 255 0 0
1.69574 -0.366943 3.52081 255 0 0
0.330502 -1.20977 1.42458 255 0 0
1.7541 -1.0079 0.0910166 255 0 0
0.342421 -1.11415 1.42598 255 0 0
0.930822 -1.09269 0.410811 255 0 0
1.9307 -1.39769 3.32444 255 0 0
5.03874 -0.418193 3.40437 255 0 0
3.07272 -0.248792 2.48496 255 0 0
2.18457 -0.787052 0.574897 255 0 0
2.65014 -1.1352 2.44508 255 0 0
1.58784 -0.744648 3.90892 255 0 0
2.93345 -1.05025 2.40563 255 0 0
4.07556 -1.26092 3.69902 255 0 0
2.23003 -1.27154 3.42145 255 0 0
1.95288 -1.31228 2.82128 255 0 0
2.54919 -1.10939 2.18842 255 0 0
2.57735 -1.07738 2.24943 255 0 0
2.56611 -1.12382 2.2038 255 0 0
0.466806 -0.506106 1.53786 255 0 0
1.49336 -1.3929 0.291467 255 0 0
1.73317 -0.412012 3.56858 255 0 0
0.0365985 -0.902965 2.20239 255 0 0
1.83122 -1.03379 3.04895 255 0 0
0.370638 -1.31166 0.10405 255 0 0
3.43236 -0.469987 5.26565 255 0 0
0.0918657 -0.531551 1.78471 255 0 0
2.82651 -1.16964 2.0885 255 0 0
-0.462565 -0.63703 0.652525 255 0 0
0.191024 -0.523123 2.61838 255 0 0
1.11958 -1.18493 3.27661 255 0 0
-0.458454 -0.640025 0.664367 255 0 0
3.68679 -0.486978 4.54108 255 0 0
-0.566938 -0.349631 1.84263 255 0 0
-0.567868 -1.17274 0.92369 255 0 0
-0.553666 -1.17325 0.924351 255 0 0
-0.72537 -0.20983 1.90932 255 0 0
-0.538471 -1.17496 0.954294 255 0 0
-0.523341 -1.27498 0.963856 255 0 0
-0.513911 -1.1878 0.973552 255 0 0
-0.519574 -1.22772 0.975796 255 0 0
-0.644272 -0.191599 1.96036 255 0 0
1.66975 -0.571962 4.16628 255 0 0
-0.477563 -1.19728 1.00398 255 0 0
-0.447507 -1.05128 0.946072 255 0 0
-0.370222 -1.30057 1.13591 255 0 0
-0.210263 -1.26961 0.96244 255 0 0
-0.208082 -1.23114 0.963715 255 0 0
-0.164612 -1.25045 0.962301 255 0 0
-0.165386 -1.27034 0.961706 255 0 0
-0.253548 -1.20567 0.952098 255 0 0
-0.164136 -1.29105 0.961472 255 0 0
-0.144314 -1.28997 0.981376 255 0 0
1.52871 -0.861187 0.154627 255 0 0
0.248233 -1.03384 2.27995 255 0 0
0.750634 -0.783928 -0.877191 255 0 0
-0.170954 -1.25091 0.948965 255 0 0
2.85147 -0.472817 3.99224 255 0 0
0.0920241 -1.31171 1.10804 255 0 0
4.40995 -0.750785 2.44562 255 0 0
0.125906 -1.31305 1.11004 255 0 0
0.128368 -1.29211 1.11115 255 0 0
3.50836 -0.681614 2.06674 255 0 0
0.124407 -1.21174 1.11276 255 0 0
0.213904 -1.31134 1.28652 255 0 0
0.220017 -1.30694 1.29752 255 0 0
0.251534 -1.31031 1.32499 255 0 0
2.57509 -1.16908 3.51845 255 0 0
2.31524 -1.33229 3.3705 255 0 0
2.09144 -1.54173 3.35342 255 0 0
0.39299 -1.2979 1.51049 255 0 0
5.17191 -0.134441 3.21502 255 0 0
2.53438 -1.128 2.17053 255 0 0
1.95122 -1.33102 2.78671 255 0 0
0.191207 -1.19147 1.84707 255 0 0
4.33913 -0.608729 2.51329 255 0 0
0.42229 -0.894638 0.268356 255 0 0
-0.37111 -1.1727 1.1874 255 0 0
1.751 -0.912787 0.143943 255 0 0
3.41084 -0.554395 4.84551 255 0 0
-0.268287 -0.594032 1.80465 255 0 0
-0.871214 -0.374629 1.76859 255 0 0
-0.863021 -0.386889 1.78473 255 0 0
-0.847725 -0.348906 1.80758 255 0 0
-0.84614 -0.33714 1.81042 255 0 0
1.32528 -0.931737 3.36269 255 0 0
-0.853045 -0.38998 1.78897 255 0 0
-0.862391 -0.449973 1.783 255 0 0
-0.862975 -0.470765 1.78524 255 0 0
-0.86917 -0.492564 1.77307 255 0 0
-0.870928 -0.530892 1.76748 255 0 0
-0.848722 -0.410323 1.80498 255 0 0
2.9666 -1.0714 1.64354 255 0 0
-0.848851 -0.451246 1.80493 255 0 0
-0.85419 -0.470397 1.79114 255 0 0
-0.831345 -0.347038 1.82751 255 0 0
1.6267 -1.41089 0.116875 255 0 0
1.42244 -0.762566 3.41613 255 0 0
-0.559739 -1.15505 0.839425 255 0 0
-0.560313 -1.16234 0.837314 255 0 0
-0.566594 -1.23924 0.88778 255 0 0
-0.565832 -1.26089 0.87439 255 0 0
-0.725616 -0.252198 1.90118 255 0 0
-0.569835 -1.24571 0.925589 255 0 0
-0.586149 -1.2672 0.986217 255 0 0
-0.545586 -1.26529 0.882755 255 0 0
-0.569966 -1.27343 0.966903 255 0 0
-0.530363 -1.2748 0.874683 255 0 0
-0.568412 -1.28569 0.961797 255 0 0
-0.548025 -1.28835 0.981215 255 0 0
-0.530924 -1.27307 0.924444 255 0 0
-0.509729 -1.27568 0.886092 255 0 0
-0.517356 -1.2723 0.896763 255 0 0
-0.287152 -0.319717 2.28692 255 0 0
1.02966 -1.27163 3.28885 255 0 0
-0.305421 -0.967417 1.01875 255 0 0
-0.39141 -0.200294 1.93648 255 0 0
-0.312506 -1.26937 1.1887 255 0 0
-0.291886 -1.28684 1.19325 255 0 0
2.56652 -0.393047 3.44322 255 0 0
-0.208294 -1.25021 0.946754 255 0 0
-0.208215 -1.27011 0.945351 255 0 0
-0.17015 -1.29022 0.94928 255 0 0
0.933999 -1.24133 3.43752 255 0 0
2.6024 -1.23763 4.28626 255 0 0
-0.130709 -1.29068 0.987753 255 0 0
-0.263481 -0.582546 1.82112 255 0 0
0.169108 -0.471468 2.73054 255 0 0
2.17818 -1.33161 0.868445 255 0 0
0.232533 -0.531118 2.74486 255 0 0
0.761469 -1.08203 0.497611 255 0 0
1.35143 -0.752775 0.263308 255 0 0
-0.0645904 -0.846797 2.12477 255 0 0
1.74876 0.592859 0.652768 255 0 0
0.259255 -0.457508 2.44141 255 0 0
0.286183 -1.28875 1.35168 255 0 0
0.343039 -1.29092 2.12987 255 0 0
0.162138 -0.344063 1.20871 255 0 0
1.36362 -0.865537 0.0553415 255 0 0
0.851881 -1.03026 3.06702 255 0 0
1.57034 -0.756415 0.546275 255 0 0
2.57411 -1.09181 2.22638 255 0 0
0.758747 -1.35968 -0.551905 255 0 0
-0.862927 -0.458069 1.77552 255 0 0
-0.829033 -0.308752 1.8278 255 0 0
-0.854348 -0.449373 1.7917 255 0 0
-0.830792 -0.331737 1.82412 255 0 0
-0.834824 -0.351192 1.81118 255 0 0
-0.837774 -0.364429 1.80778 255 0 0
-0.854512 -0.491745 1.78603 255 0 0
-0.83866 -0.390181 1.81434 255 0 0
-0.852666 -0.509811 1.78711 255 0 0
-0.855305 -0.529025 1.78214 255 0 0
-0.145991 -0.849468 2.42569 255 0 0
-0.809789 -0.31118 1.84708 255 0 0
-0.80953 -0.326145 1.84668 255 0 0
-0.703899 -1.36556 0.999721 255 0 0
-0.688193 -1.3676 1.0026 255 0 0
0.872393 -1.1703 3.46229 255 0 0
-0.674569 -1.34781 1.02069 255 0 0
-0.669133 -1.3545 1.0121 255 0 0
3.42691 -1.01269 2.92542 255 0 0
1.66452 -1.20994 0.248072 255 0 0
-0.645223 -1.32389 1.00713 255 0 0
-0.759472 -0.497166 1.86414 255 0 0
-0.601879 -1.27093 0.968327 255 0 0
-0.577065 -1.25872 0.990984 255 0 0
-0.55219 -1.27409 0.986495 255 0 0
-0.55626 -1.27069 0.999671 255 0 0
-0.488693 -1.19792 1.03848 255 0 0
0.686558 -1.32582 -0.092784 255 0 0
0.137087 -0.987048 2.39417 255 0 0
-0.39301 -0.850624 0.867496 255 0 0
-0.365988 -0.81126 0.859606 255 0 0
-0.368879 -1.23308 1.17111 255 0 0
-0.372662 -0.209564 1.81137 255 0 0
-0.346353 -1.22585 1.19715 255 0 0
-0.346514 -1.25075 1.20354 255 0 0
-0.366653 -0.2097 1.95961 255 0 0
3.27135 -0.744904 1.85008 255 0 0
-0.492415 -0.697535 2.08759 255 0 0
2.77593 -0.969257 2.37168 255 0 0
2.02794 -1.33007 1.06232 255 0 0
0.274833 -0.5126 2.68383 255 0 0
0.330577 -1.29186 1.42426 255 0 0
0.318615 -1.1892 1.42101 255 0 0
0.33791 -1.13608 1.43938 255 0 0
-0.220174 -0.622139 1.83427 255 0 0
0.449461 -0.379061 2.24937 255 0 0
0.150587 -0.308955 1.19874 255 0 0
-0.0369946 -0.540114 1.68218 255 0 0
4.90845 -1.34885 2.94563 255 0 0
0.885434 -1.21793 3.09272 255 0 0
1.24794 -1.03299 0.150414 255 0 0
5.07654 -0.326973 3.38881 255 0 0
0.469503 -1.32728 0.0875363 255 0 0
4.20116 -0.501161 2.77658 255 0 0
2.68735 -1.26972 3.42333 255 0 0
5.02281 -0.0215353 3.28872 255 0 0
-0.383111 -0.673667 1.85072 255 0 0
4.28607 -0.588388 3.40229 255 0 0
0.468147 -0.499316 1.53765 255 0 0
1.26935 -1.23496 3.44845 255 0 0
1.47868 -1.21492 0.99308 255 0 0
1.9655 -0.919871 2.93779 255 0 0
-0.803536 -0.353215 1.81038 255 0 0
-0.497042 -0.497358 2.07309 255 0 0
-0.679919 -1.27622 0.941205 255 0 0
-0.668211 -1.29091 0.941326 255 0 0
3.92878 -1.06468 3.62498 255 0 0
-0.650516 -1.27368 0.950763 255 0 0
-0.654954 -1.29214 0.945204 255 0 0
-0.697841 -0.186053 1.89989 255 0 0
-0.566765 -1.15178 0.929634 255 0 0
-0.552586 -1.1519 0.930337 255 0 0
-0.540433 -1.12005 0.935905 255 0 0
-0.534117 -1.11972 0.935729 255 0 0
-0.536967 -1.13617 0.934594 255 0 0
-0.486829 -1.11346 0.944114 255 0 0
-0.489611 -1.13177 0.944782 255 0 0
-0.467045 -1.05376 0.942883 255 0 0
-0.687096 -0.240524 2.49773 255 0 0
-0.668738 -0.236269 2.49864 255 0 0
2.70942 -1.29246 4.0468 255 0 0
0.810824 -1.33272 -0.594205 255 0 0
-0.426782 -1.03816 0.952797 255 0 0
-0.655031 -0.228238 2.49928 255 0 0
-0.391646 -0.876726 0.889695 255 0 0
-0.643423 -0.205471 2.50938 255 0 0
-0.426186 -1.06989 0.957967 255 0 0
1.35107 -0.773186 0.283097 255 0 0
0.0675661 -1.19037 -1.51291 255 0 0
-0.281929 -0.168629 1.6851 255 0 0
-0.0917119 -1.07122 2.48041 255 0 0
0.689186 -1.26796 -0.494176 255 0 0
-0.0558395 -1.30973 1.05157 255 0 0
-0.0548938 -1.25087 1.05269 255 0 0
-0.0364253 -1.23223 1.07087 255 0 0
-0.036356 -1.2505 1.07029 255 0 0
-0.036566 -1.29323 1.07136 255 0 0
-0.00370312 -1.27109 1.17096 255 0 0
0.0360576 -0.366517 2.40283 255 0 0
2.65354 -1.04483 2.08049 255 0 0
1.93545 -0.885102 2.93233 255 0 0
0.304944 -1.30686 1.37205 255 0 0
-0.345533 -0.409295 1.69081 255 0 0
0.341752 -1.2928 1.41245 255 0 0
2.75343 -1.12922 4.10362 255 0 0
3.35078 -1.05944 2.65988 255 0 0
1.23133 -1.21999 0.477356 255 0 0
0.342307 -1.15502 1.41483 255 0 0
1.83414 -0.412067 0.161352 255 0 0
0.342439 -1.03661 1.41435 255 0 0
2.96879 -0.511784 1.52372 255 0 0
0.162155 -0.336485 1.20261 255 0 0
1.83569 -1.27624 3.15647 255 0 0
0.130743 -0.187202 1.18241 255 0 0
1.43306 -0.631482 -0.198567 255 0 0
1.31679 -0.888244 3.41465 255 0 0
1.11302 -0.84727 0.320332 255 0 0
2.12947 -0.170181 4.20391 255 0 0
2.79058 -1.28821 2.03048 255 0 0
0.887136 -1.25164 0.42957 255 0 0
5.07599 -0.234473 3.31105 255 0 0
4.04805 -1.18205 3.68132 255 0 0
4.74003 -0.452137 3.31351 255 0 0
-0.444259 -0.235914 2.09268 255 0 0
0.270354 -1.25532 1.91295 255 0 0
0.175831 -1.04442 -0.128391 255 0 0
3.75398 -1.30997 3.53 255 0 0
2.72641 -1.31126 1.82372 255 0 0
2.69252 -1.3331 1.04865 255 0 0
1.7301 0.388766 0.264828 255 0 0
2.12896 0.248595 0.864923 255 0 0
1.9314 -0.150771 4.17866 255 0 0
1.58294 -0.712848 3.89421 255 0 0
1.53754 -1.45108 0.268138 255 0 0
2.05555 -0.190297 0.87234 255 0 0
3.29598 -1.34617 2.48577 255 0 0
4.82993 -1.27796 2.94797 255 0 0
1.41152 -0.251889 3.78063 255 0 0
1.41571 -0.276072 3.77329 255 0 0
-0.591131 -0.372578 1.88735 255 0 0
1.42855 -0.249896 3.78275 255 0 0
0.301951 -0.536104 2.67479 255 0 0
0.811749 -1.33439 -0.574407 255 0 0
-0.70495 -0.174709 1.87844 255 0 0
3.41057 -0.44882 4.8852 255 0 0
-0.710428 -1.3538 0.987898 255 0 0
-0.706616 -1.33837 1.00992 255 0 0
-0.693586 -1.33747 1.02175 255 0 0
-0.626163 -1.32325 1.01586 255 0 0
-0.624079 -1.3039 1.03628 255 0 0
-0.608481 -1.31582 1.028 255 0 0
-0.611971 -1.34718 0.997471 255 0 0
-0.591256 -1.31801 1.02678 255 0 0
-0.58267 -1.31577 1.06144 255 0 0
-0.65251 -0.229252 2.49457 255 0 0
0.280364 -0.945671 2.49748 255 0 0
-0.40973 -1.23697 1.17634 255 0 0
-0.398296 -1.20489 1.17462 255 0 0
-0.390706 -1.28753 1.2218 255 0 0
-0.391458 -1.27515 1.22787 255 0 0
-0.37032 -1.20086 1.19654 255 0 0
3.41243 -0.643143 4.82625 255 0 0
1.92371 -0.895767 2.95782 255 0 0
2.11015 -1.33276 3.10698 255 0 0
2.71034 -1.24671 2.46873 255 0 0
3.51025 -1.30458 3.18054 255 0 0
1.84928 -0.414393 0.160426 255 0 0
-0.150213 -0.252979 2.32206 255 0 0
0.0675281 -1.20884 -1.49234 255 0 0
-0.054589 -1.27409 1.05226 255 0 0
-0.195338 -0.608801 1.76898 255 0 0
0.327287 -1.25133 1.39192 255 0 0
-0.571616 -0.703327 2.03093 255 0 0
-0.061498 -0.865603 2.08889 255 0 0
2.11298 -0.153079 0.326878 255 0 0
0.923128 -1.01779 3.31401 255 0 0
1.71127 -0.582763 3.50061 255 0 0
1.48854 -0.814804 0.47186 255 0 0
-0.781054 -0.422626 1.82336 255 0 0
1.91611 -0.887089 2.95313 255 0 0
1.73784 -1.29508 3.1252 255 0 0
1.97048 -0.147411 4.6251 255 0 0
4.11129 -0.491779 4.10686 255 0 0
-0.225803 -0.870432 1.89007 255 0 0
0.392635 1.20349 -0.573477 255 0 0
0.427212 -0.454715 1.44452 255 0 0
1.55784 -1.36475 0.206359 255 0 0
1.33083 -0.84886 3.42103 255 0 0
1.32816 -0.871206 3.41211 255 0 0
0.426407 -0.470563 1.43323 255 0 0
1.33172 -0.849959 3.41296 255 0 0
1.35486 -0.835325 3.40999 255 0 0
1.35252 -0.847436 3.4079 255 0 0
1.36863 -0.831366 3.41053 255 0 0
1.20208 -1.0149 0.340057 255 0 0
1.37279 -0.810459 3.42829 255 0 0
1.39094 -0.76858 3.4274 255 0 0
1.39085 -0.794812 3.42931 255 0 0
2.60676 -1.31222 3.72623 255 0 0
1.02128 -1.27947 3.27323 255 0 0
3.63643 -1.29006 3.65083 255 0 0
-0.286238 -0.943463 1.85651 255 0 0
1.61002 -1.34956 1.30931 255 0 0
0.689175 -1.41131 -0.212972 255 0 0
0.309699 -0.700353 1.71461 255 0 0
3.04799 -1.19663 4.1038 255 0 0
2.60867 -0.586444 3.60747 255 0 0
-0.541718 -0.233853 1.50597 255 0 0
-0.580471 -0.337963 1.52763 255 0 0
-0.674821 -1.2931 0.932668 255 0 0
-0.521444 -0.190026 1.49517 255 0 0
-0.509945 -0.191185 1.49262 255 0 0
-0.50281 -0.18043 1.49091 255 0 0
2.59424 -1.22967 4.28563 255 0 0
3.38983 -0.531316 2.30644 255 0 0
0.314892 1.20123 -0.590289 255 0 0
1.22985 -0.885633 -0.272539 255 0 0
-0.481328 -1.22048 0.873501 255 0 0
-0.406603 -0.872544 0.879237 255 0 0
3.02768 -0.60366 1.62343 255 0 0
-0.446843 -1.22901 0.879469 255 0 0
-0.459345 -1.28717 0.855239 255 0 0
-0.446952 -1.25029 0.878529 255 0 0
-0.352576 -0.917769 0.968664 255 0 0
-0.330993 -0.930791 0.988538 255 0 0
-0.350381 -1.06104 0.986843 255 0 0
-0.328856 -0.918289 0.989309 255 0 0
-0.320994 -0.949097 1.00208 255 0 0
-0.328419 -1.03005 1.00277 255 0 0
-0.314305 -0.914533 0.994981 255 0 0
-0.319861 -0.984952 1.01576 255 0 0
-0.324637 -0.510055 1.58731 255 0 0
-0.327 -0.528831 1.58441 255 0 0
-0.308461 -0.994767 1.0191 255 0 0
4.22378 -0.789858 2.63284 255 0 0
-0.31776 -1.09829 1.04553 255 0 0
-0.314603 -1.12251 1.05301 255 0 0
1.54704 -0.903762 0.611005 255 0 0
0.464023 -0.912346 1.78684 255 0 0
4.12953 -0.268284 4.61398 255 0 0
-0.220482 -1.23523 0.951789 255 0 0
2.6228 -0.393712 1.66972 255 0 0
-0.204819 -1.25044 0.930403 255 0 0
-0.190963 -1.27095 0.932471 255 0 0
1.28987 -1.25057 0.645424 255 0 0
3.35005 -1.32338 2.96686 255 0 0
2.13466 -0.130311 0.821938 255 0 0
-0.0484525 -0.195973 1.53163 255 0 0
2.04073 -1.30158 3.15819 255 0 0
1.97251 0.471089 0.960934 255 0 0
1.53427 -1.43198 0.270185 255 0 0
0.0786006 -0.187454 1.40879 255 0 0
0.0797109 -0.177553 1.4068 255 0 0
0.0824061 -0.1887 1.39842 255 0 0
0.0909477 -0.178043 1.39915 255 0 0
0.10096 -0.181429 1.38326 255 0 0
0.115609 -0.179134 1.37216 255 0 0
-0.231285 -0.851923 1.90003 255 0 0
0.114046 -0.201399 1.33387 255 0 0
0.125722 -0.184845 1.34258 255 0 0
0.129892 -0.190269 1.32426 255 0 0
0.134928 -0.176736 1.34668 255 0 0
0.134905 -0.193482 1.30836 255 0 0
0.135909 -0.180029 1.33178 255 0 0
0.149346 -0.174135 1.33734 255 0 0
0.152686 -0.178293 1.32525 255 0 0
0.150599 -0.187309 1.30782 255 0 0
-0.543335 -0.165218 1.8252 255 0 0
0.161571 -0.171783 1.33633 255 0 0
0.131331 -0.186925 1.19806 255 0 0
1.03691 -0.795933 0.197692 255 0 0
1.38325 -0.538196 -0.358904 255 0 0
0.894895 -1.01691 3.30525 255 0 0
4.26865 -0.72548 2.26624 255 0 0
0.877314 -1.25287 0.400521 255 0 0
1.07193 -0.972151 0.53759 255 0 0
1.21117 -1.23081 0.325926 255 0 0
1.06978 -0.751338 3.50717 255 0 0
5.08066 -0.136702 3.33126 255 0 0
0.398203 -0.813206 1.73289 255 0 0
2.02582 0.384988 0.931072 255 0 0
3.489 -0.603673 4.78331 255 0 0
1.90956 -0.930286 2.87274 255 0 0
2.67171 -0.989421 3.46479 255 0 0
4.61189 -0.429567 3.46802 255 0 0
2.69566 -1.19699 1.87276 255 0 0
1.90215 -1.04416 3.57854 255 0 0
1.05563 -0.586904 -0.531503 255 0 0
2.1469 -1.31074 3.48307 255 0 0
5.00939 -0.442433 3.41126 255 0 0
1.83191 -0.170947 0.12438 255 0 0
0.126857 -0.338313 2.22597 255 0 0
1.42175 -0.369374 3.67516 255 0 0
1.41158 -0.475093 3.56509 255 0 0
1.41341 -0.49685 3.55268 255 0 0
2.64999 -0.574587 3.6026 255 0 0
0.829743 -0.744816 -0.253437 255 0 0
1.07426 -0.825603 0.349603 255 0 0
0.28757 -1.10773 2.81046 255 0 0
1.99771 -0.350017 0.403861 255 0 0
2.64782 -1.11184 4.24492 255 0 0
0.792874 -1.05455 3.24282 255 0 0
2.82603 -1.12513 1.63484 255 0 0
-0.420146 -0.860474 0.860823 255 0 0
-0.475324 -1.11162 0.955829 255 0 0
-0.466242 -1.28513 0.866355 255 0 0
3.36834 -0.427876 1.70571 255 0 0
-0.444645 -1.17105 1.02118 255 0 0
-0.443211 -1.18837 1.03074 255 0 0
4.98967 -0.171585 3.02731 255 0 0
5.05598 -0.156976 3.37772 255 0 0
-0.369007 -1.21218 1.18656 255 0 0
-0.362797 -1.20874 1.19834 255 0 0
-0.366671 -1.25053 1.18187 255 0 0
3.75298 -0.47365 4.46406 255 0 0
-0.360479 -1.22764 1.19982 255 0 0
1.12292 -1.2807 0.199518 255 0 0
-0.325956 -1.36664 1.32131 255 0 0
-0.306828 -1.35895 1.34061 255 0 0
0.184612 -0.930983 2.41325 255 0 0
-0.290538 -1.35684 1.33741 255 0 0
-0.222263 -1.25219 0.959112 255 0 0
-0.0755605 -1.27103 1.0334 255 0 0
-0.0761996 -1.28921 1.03259 255 0 0
-0.0758273 -1.31141 1.03252 255 0 0
-0.0072644 -1.27136 1.18715 255 0 0
0.00780627 -1.252 1.19991 255 0 0
3.43188 -0.312304 5.3116 255 0 0
0.295824 -1.13008 2.82004 255 0 0
0.0734042 -1.28952 1.11114 255 0 0
0.162585 -1.14751 1.21356 255 0 0
0.175812 -1.23093 1.23999 255 0 0
4.39004 -0.816547 2.43721 255 0 0
-0.269434 -1.15068 0.983448 255 0 0
0.247388 -1.29036 1.31048 255 0 0
0.186147 -0.622053 2.63141 255 0 0
0.110215 -0.174064 1.20278 255 0 0
4.39265 -0.560697 2.51442 255 0 0
0.393042 -1.30417 1.52452 255 0 0
0.225042 -0.891424 -0.153239 255 0 0
1.82937 -1.09206 3.05023 255 0 0
0.130094 -0.176235 1.20652 255 0 0
-0.607654 -0.687283 2.02549 255 0 0
0.128428 -0.178327 1.18463 255 0 0
0.766281 -1.36621 -0.537909 255 0 0
2.05416 -1.52555 3.4035 255 0 0
2.84846 -1.28395 1.93709 255 0 0
1.20428 -1.20526 0.450015 255 0 0
4.30375 -0.536278 3.47355 255 0 0
-0.0576355 -0.459133 2.03083 255 0 0
1.43045 -1.35023 0.324797 255 0 0
1.33021 -1.01132 3.36428 255 0 0
1.81328 -0.191591 0.341669 255 0 0
4.13814 -0.900644 2.95436 255 0 0
0.829666 -1.07227 0.428299 255 0 0
1.52909 -0.848072 0.728281 255 0 0
2.07579 -1.13417 3.37236 255 0 0
1.43022 -0.568268 3.39934 255 0 0
1.45035 -0.550082 3.40408 255 0 0
1.54968 -0.798202 3.3857 255 0 0
1.4729 -0.529466 3.4053 255 0 0
1.49361 -0.533047 3.39223 255 0 0
0.993659 -0.850959 3.66654 255 0 0
1.52978 -0.513789 3.3887 255 0 0
0.972535 -1.40172 -0.109547 255 0 0
1.52852 -0.526956 3.37969 255 0 0
0.88569 -1.15056 0.45808 255 0 0
-0.0690781 -1.21043 2.40481 255 0 0
3.52077 -1.32621 2.85344 255 0 0
0.0307761 -0.910731 2.16486 255 0 0
0.00877492 -1.13353 2.00682 255 0 0
1.80414 0.0650329 0.332665 255 0 0
3.02093 -0.544708 2.76533 255 0 0
1.66676 -0.548628 4.18829 255 0 0
1.57349 -0.53808 3.35324 255 0 0
3.38542 -1.14988 2.93278 255 0 0
1.59078 -0.552136 3.34159 255 0 0
1.58633 -0.569387 3.3378 255 0 0
1.78804 -1.31967 3.06392 255 0 0
2.56295 -1.13112 3.54187 255 0 0
3.07807 -0.237488 2.42915 255 0 0
4.30951 -0.510818 2.70603 255 0 0
-0.421082 -0.452484 1.30552 255 0 0
-0.412033 -0.476604 1.24981 255 0 0
-0.408851 -0.490083 1.24342 255 0 0
-0.416983 -0.494683 1.23011 255 0 0
-0.419796 -0.504188 1.22931 255 0 0
-0.0355934 -0.448901 2.4396 255 0 0
-0.413256 -0.456557 1.30741 255 0 0
-0.409484 -0.46846 1.28603 255 0 0
-0.407389 -0.511088 1.23904 255 0 0
-0.420412 -0.513925 1.23819 255 0 0
-0.38976 -0.492449 1.24919 255 0 0
-0.397453 -0.839749 0.866206 255 0 0
3.57882 -1.14509 2.8138 255 0 0
3.77116 -0.466648 1.80422 255 0 0
2.00361 -1.09037 2.78011 255 0 0
-0.416703 -1.15092 0.841203 255 0 0
-0.403527 -1.04744 0.940278 255 0 0
1.55462 -1.35824 0.211031 255 0 0
0.212536 -0.910379 2.44553 255 0 0
1.78755 -0.819096 0.0999296 255 0 0
-0.322584 -0.470896 1.6033 255 0 0
-0.322023 -0.925571 0.996723 255 0 0
4.03042 -1.18596 3.66582 255 0 0
-0.31657 -0.917495 1.00191 255 0 0
0.324777 -0.873629 2.79017 255 0 0
1.78575 -1.15038 0.666146 255 0 0
-0.306772 -1.10417 1.00059 255 0 0
-0.287396 -0.977746 1.0364 255 0 0
-0.29156 -1.05279 1.02717 255 0 0
1.71943 -1.0238 3.67954 255 0 0
2.11813 -0.253277 0.842159 255 0 0
2.01672 -0.848621 3.53296 255 0 0
-0.195549 -1.27082 0.913397 255 0 0
-0.17351 -1.24244 0.93014 255 0 0
-0.15805 -1.26462 0.949328 255 0 0
1.93589 -0.377527 3.86845 255 0 0
0.162178 -1.25138 1.20924 255 0 0
0.153895 -1.1524 1.20404 255 0 0
0.163151 -1.19193 1.21237 255 0 0
0.174355 -1.26984 1.2434 255 0 0
3.75247 -0.565609 4.50871 255 0 0
0.174862 -1.17085 1.24266 255 0 0
0.17434 -1.19144 1.24158 255 0 0
3.12983 -0.149624 1.78328 255 0 0
-0.11537 -0.796951 2.17029 255 0 0
1.79398 0.566661 0.97889 255 0 0
1.247 -1.03419 0.261977 255 0 0
4.31157 -0.872233 2.80772 255 0 0
2.19116 -1.31022 3.00797 255 0 0
2.07384 -0.0915798 0.900833 255 0 0
-0.00644856 -0.514352 2.08261 255 0 0
2.84824 -1.2431 2.06419 255 0 0
1.82868 -1.13211 3.0447 255 0 0
3.37881 -0.470797 2.29137 255 0 0
0.617133 -0.728262 -0.966313 255 0 0
2.05186 -0.134355 3.44446 255 0 0
