ply
format ascii 1.0
comment Created by Open3D
element vertex 1367
property double x
property double y
property double z
property uchar red
property uchar green
property uchar blue
end_header
0.418979 -0.905801 -0.670509 255 0 0
1.13003 -1.05999 0.416166 255 0 0
-0.70708 -1.11729 -0.741931 255 0 0
0.417518 -0.88656 -0.684318 255 0 0
0.860825 1.17954 0.946932 255 0 0
1.47171 -0.839153 -0.0904569 255 0 0
1.25689 -0.87417 -0.251927 255 0 0
1.24507 -0.875898 -0.261713 255 0 0
1.51859 -1.32401 -0.130355 255 0 0
1.03239 -1.07471 0.374685 255 0 0
1.95677 -0.562312 0.498104 255 0 0
1.32728 -0.648965 -0.264487 255 0 0
1.31647 -0.707148 -0.276348 255 0 0
1.31682 -0.717596 -0.274157 255 0 0
1.30452 -0.668514 -0.27174 255 0 0
1.30475 -0.693614 -0.275298 255 0 0
1.29316 -0.666523 -0.26698 255 0 0
1.29341 -0.679808 -0.271886 255 0 0
1.25476 -0.68605 -0.505645 255 0 0
1.51045 -0.90149 0.165168 255 0 0
0.913352 -1.41243 -0.619933 255 0 0
1.71737 -1.40169 -0.0618154 255 0 0
1.40361 -0.942551 -0.0952214 255 0 0
1.85 -0.46355 0.0933908 255 0 0
-0.457998 1.13761 -1.13447 255 0 0
1.03083 -0.972561 0.684269 255 0 0
0.68026 -1.24294 0.0125069 255 0 0
1.55706 -0.645146 0.30825 255 0 0
2.08047 -0.0401091 0.895565 255 0 0
1.73088 -1.20988 0.213226 255 0 0
1.54352 -0.891281 0.18233 255 0 0
1.75156 0.34809 0.573397 255 0 0
1.46648 -0.892573 -0.15603 255 0 0
1.46607 -0.900145 -0.146906 255 0 0
1.46307 -0.940132 -0.0851478 255 0 0
1.45459 -0.894385 -0.163594 255 0 0
1.42999 -0.845719 -0.222043 255 0 0
1.42859 -0.890418 -0.181767 255 0 0
1.42839 -0.936016 -0.110214 255 0 0
1.42747 -0.946574 -0.0849745 255 0 0
1.41575 -0.946467 -0.0879996 255 0 0
1.40216 -0.941345 -0.104751 255 0 0
1.3925 -0.948352 -0.0985238 255 0 0
1.38168 -0.889807 -0.2006 255 0 0
1.38084 -0.949294 -0.103794 255 0 0
1.36916 -0.950236 -0.109071 255 0 0
1.71833 0.563375 0.655388 255 0 0
1.66907 -0.812967 0.0755485 255 0 0
1.66165 -0.821452 0.0819496 255 0 0
1.44735 -0.906275 0.108772 255 0 0
1.44735 -0.910866 0.116397 255 0 0
1.4376 -0.908321 0.107478 255 0 0
1.42756 -0.9126 0.105299 255 0 0
1.30849 -0.920538 0.0627926 255 0 0
1.28926 -0.913622 0.0494972 255 0 0
0.95175 -0.931998 0.437336 255 0 0
0.627657 1.22145 -0.397073 255 0 0
0.592917 1.22273 -0.442002 255 0 0
0.588391 1.21954 -0.404931 255 0 0
0.581061 1.22009 -0.443507 255 0 0
0.180712 -1.04152 -0.132742 255 0 0
1.54546 -0.830578 0.11679 255 0 0
1.53773 -0.866715 0.166758 255 0 0
1.53535 -0.878681 0.182084 255 0 0
1.52871 -0.861187 0.154627 255 0 0
1.52093 -0.86733 0.159494 255 0 0
1.51578 -0.872071 0.169292 255 0 0
1.50775 -0.860549 0.146944 255 0 0
1.50999 -0.869142 0.156952 255 0 0
1.4986 -0.855138 0.136732 255 0 0
1.49846 -0.869661 0.153612 255 0 0
1.48887 -0.852779 0.134498 255 0 0
1.48708 -0.860908 0.142091 255 0 0
1.48823 -0.866671 0.149536 255 0 0
1.47933 -0.853891 0.128167 255 0 0
1.46724 -0.855053 0.127011 255 0 0
1.45674 -0.854849 0.124134 255 0 0
1.33213 -0.727933 -0.282594 255 0 0
1.32024 -0.725396 -0.280759 255 0 0
1.08353 -0.996289 0.54674 255 0 0
0.879399 1.1688 0.926798 255 0 0
0.578648 1.21845 -0.402501 255 0 0
1.94775 -0.548732 0.507697 255 0 0
1.67127 -0.819805 0.0773952 255 0 0
1.66936 -0.823553 0.0839176 255 0 0
1.65196 -0.810901 0.06475 255 0 0
1.64984 -0.816267 0.0691162 255 0 0
1.63909 -0.810657 0.0659333 255 0 0
0.879593 1.18094 0.92691 255 0 0
0.610074 1.21114 -0.410927 255 0 0
0.598375 1.20975 -0.414308 255 0 0
0.862063 1.17817 0.937342 255 0 0
0.625425 1.22393 -0.358519 255 0 0
0.597571 1.22605 -0.436051 255 0 0
0.591533 1.22612 -0.402012 255 0 0
0.851996 1.1814 0.93583 255 0 0
0.849832 1.17948 0.955911 255 0 0
0.850776 1.18091 0.945384 255 0 0
0.850889 1.18095 0.987433 255 0 0
0.843953 1.1813 0.943591 255 0 0
0.838887 1.18367 0.935254 255 0 0
0.841851 1.18039 0.976781 255 0 0
0.839567 1.18102 0.965637 255 0 0
0.841041 1.18093 0.987068 255 0 0
0.831904 1.17952 0.964269 255 0 0
0.83331 1.17843 0.986084 255 0 0
0.830659 1.17899 0.975864 255 0 0
1.53136 -0.969208 -0.0653131 255 0 0
1.51258 -0.962412 -0.0735857 255 0 0
1.50844 -0.965591 -0.0670744 255 0 0
1.48816 -0.957129 -0.0799551 255 0 0
1.45941 -0.93865 -0.0934568 255 0 0
1.46014 -0.891827 -0.164096 255 0 0
1.44623 -0.937283 -0.100402 255 0 0
1.43945 -0.884743 -0.182557 255 0 0
1.42365 -0.934781 -0.104343 255 0 0
1.42044 -0.948508 -0.0894933 255 0 0
1.41252 -0.934054 -0.107396 255 0 0
1.39949 -0.934592 -0.111906 255 0 0
1.37256 -0.882967 -0.201952 255 0 0
1.25627 -0.872924 -0.260182 255 0 0
1.25512 -0.879266 -0.248872 255 0 0
0.860755 1.19047 0.947613 255 0 0
0.860267 1.19238 0.928325 255 0 0
0.852362 1.19138 0.936432 255 0 0
0.850163 1.18773 0.956792 255 0 0
0.851186 1.18983 0.94637 255 0 0
0.840916 1.18622 0.956557 255 0 0
0.822558 1.19332 0.928252 255 0 0
0.831367 1.1843 0.996633 255 0 0
0.830327 1.1814 0.99169 255 0 0
1.56179 -0.879785 0.195251 255 0 0
1.56101 -0.889038 0.195133 255 0 0
1.55099 -0.853869 0.183481 255 0 0
1.55105 -0.898105 0.191382 255 0 0
1.54539 -0.863151 0.182405 255 0 0
1.53514 -0.882704 0.176412 255 0 0
1.52803 -0.855401 0.170192 255 0 0
1.52118 -0.893565 0.166421 255 0 0
1.51865 -0.860862 0.164217 255 0 0
1.51749 -0.874479 0.165228 255 0 0
1.51136 -0.881227 0.156537 255 0 0
1.50984 -0.894405 0.158871 255 0 0
1.50022 -0.856523 0.15439 255 0 0
1.48889 -0.895493 0.147606 255 0 0
1.46285 -0.857997 0.133224 255 0 0
1.45082 -0.906248 0.12711 255 0 0
0.342044 -1.23594 0.390477 255 0 0
1.56239 -0.835041 0.185265 255 0 0
1.55958 -0.862593 0.188122 255 0 0
1.55772 -0.880851 0.190038 255 0 0
1.53797 -0.90041 0.180031 255 0 0
1.50551 -0.877778 0.14903 255 0 0
1.50264 -0.904839 0.152975 255 0 0
1.48465 -0.90676 0.139889 255 0 0
1.47514 -0.906607 0.135395 255 0 0
1.46059 -0.916983 0.127045 255 0 0
1.43746 -0.918565 0.112133 255 0 0
1.32099 -0.925988 0.0586636 255 0 0
1.30302 -0.907559 0.0463884 255 0 0
1.30222 -0.916354 0.0484928 255 0 0
1.29129 -0.923282 0.0492394 255 0 0
2.17231 -0.937713 0.704145 255 0 0
2.15126 -0.840506 0.699288 255 0 0
2.14322 -0.831253 0.696627 255 0 0
1.76518 -1.05735 0.241734 255 0 0
1.41653 -0.856286 -0.223897 255 0 0
1.83748 -0.577595 0.207877 255 0 0
1.85155 -1.04709 0.187022 255 0 0
1.84773 -1.01062 0.176708 255 0 0
1.84602 -1.03053 0.178428 255 0 0
1.84406 -1.03898 0.181603 255 0 0
1.83234 -0.993822 0.1603 255 0 0
1.81651 -1.13778 0.180314 255 0 0
1.85335 -0.442546 0.0878678 255 0 0
1.85285 -0.46412 0.0857142 255 0 0
1.83741 -0.106399 0.123379 255 0 0
1.84112 -0.130585 0.115677 255 0 0
1.66176 -0.81244 0.0732164 255 0 0
1.49122 -0.95021 -0.0785217 255 0 0
1.40794 -0.94766 -0.109618 255 0 0
1.39698 -0.946227 -0.111877 255 0 0
1.3757 -0.933014 -0.117867 255 0 0
1.31599 -0.655868 -0.268109 255 0 0
1.31518 -0.666528 -0.264558 255 0 0
1.30327 -0.6895 -0.268212 255 0 0
1.85053 -1.11795 0.127625 255 0 0
1.84816 -1.12574 0.131761 255 0 0
1.84452 -1.1513 0.138594 255 0 0
1.84275 -1.1612 0.139586 255 0 0
1.84248 -1.10008 0.117801 255 0 0
1.84141 -1.10794 0.122159 255 0 0
1.83856 -1.1206 0.126988 255 0 0
1.83483 -1.1319 0.133672 255 0 0
1.85303 -0.454776 0.0940509 255 0 0
1.8427 -0.104914 0.114312 255 0 0
1.78857 -0.981277 0.0890609 255 0 0
1.77852 -0.939356 0.093249 255 0 0
1.85024 0.59999 0.874841 255 0 0
1.83245 0.599715 0.869316 255 0 0
0.481335 -1.07332 -0.352277 255 0 0
0.663747 -1.26456 0.0109424 255 0 0
2.21159 -0.348089 0.794917 255 0 0
2.21143 -0.331493 0.78472 255 0 0
2.20851 -0.33877 0.786674 255 0 0
2.20841 -0.349381 0.788212 255 0 0
2.19859 -0.341577 0.787757 255 0 0
2.19274 -0.347944 0.78982 255 0 0
2.1942 -0.351477 0.793105 255 0 0
2.19954 -0.338451 0.777869 255 0 0
2.19592 -0.349877 0.779962 255 0 0
2.19327 -0.357079 0.781903 255 0 0
2.19978 -0.320807 0.768425 255 0 0
2.20104 -0.329977 0.767682 255 0 0
2.19116 -0.343298 0.775059 255 0 0
2.19555 -0.321707 0.762389 255 0 0
2.19156 -0.33919 0.765446 255 0 0
2.18842 -0.352157 0.767186 255 0 0
2.18967 -0.330836 0.755516 255 0 0
2.18271 -0.342583 0.763101 255 0 0
2.18335 -0.352849 0.761899 255 0 0
2.18528 -0.322953 0.751773 255 0 0
2.18186 -0.330071 0.754485 255 0 0
2.17741 -0.353242 0.757353 255 0 0
1.85269 -0.109059 0.115997 255 0 0
1.85364 -0.117911 0.116788 255 0 0
1.85098 -0.150539 0.113259 255 0 0
1.83354 -0.11538 0.132527 255 0 0
1.4838 -1.28994 -0.185105 255 0 0
0.787164 -0.829237 0.47979 255 0 0
1.8351 -0.10428 0.125314 255 0 0
1.832 -0.114504 0.127907 255 0 0
1.75852 -1.03251 0.111635 255 0 0
1.75431 -1.03763 0.11953 255 0 0
1.29246 -0.651982 -0.510501 255 0 0
2.21715 -0.335272 0.796315 255 0 0
2.21731 -0.328921 0.787442 255 0 0
2.20491 -0.341428 0.796521 255 0 0
2.20857 -0.329857 0.775913 255 0 0
2.185 -0.348882 0.784582 255 0 0
1.55609 -0.903297 0.625698 255 0 0
1.54175 -0.912506 0.627245 255 0 0
1.77182 0.559246 0.357447 255 0 0
1.50926 -1.32235 -0.12097 255 0 0
1.43217 -0.792691 -0.256179 255 0 0
1.31426 -0.665192 -0.267485 255 0 0
0.472896 -1.19546 -0.141832 255 0 0
0.621291 -1.21165 -0.395888 255 0 0
1.78785 0.472084 0.368914 255 0 0
0.40388 -1.22563 0.432042 255 0 0
1.47812 -1.33783 -0.177194 255 0 0
1.20704 -1.02309 0.35035 255 0 0
1.20072 -1.02908 0.356705 255 0 0
1.18847 -1.02847 0.356336 255 0 0
1.18681 -1.03281 0.361458 255 0 0
1.17996 -1.03092 0.35458 255 0 0
1.29531 -0.658037 -0.510729 255 0 0
1.28401 -0.657044 -0.516239 255 0 0
1.25688 -0.675577 -0.512168 255 0 0
1.24574 -0.65926 -0.508856 255 0 0
2.17454 -0.0572761 0.842918 255 0 0
2.17165 -0.0418702 0.837037 255 0 0
2.16895 -0.0604504 0.834536 255 0 0
2.16689 -0.0791832 0.835718 255 0 0
2.16653 -0.0867013 0.840004 255 0 0
2.16462 -0.0940641 0.841276 255 0 0
2.14984 -0.140285 0.845767 255 0 0
2.14943 -0.145019 0.851485 255 0 0
2.16835 -0.0413611 0.82698 255 0 0
2.16936 -0.0490815 0.830276 255 0 0
2.16382 -0.0902736 0.833621 255 0 0
2.15948 -0.108778 0.836478 255 0 0
2.15273 -0.123234 0.83702 255 0 0
2.16226 -0.0610081 0.824123 255 0 0
2.1585 -0.0809426 0.823731 255 0 0
2.1602 -0.0899659 0.827919 255 0 0
2.15357 -0.112045 0.83243 255 0 0
2.15425 -0.0932265 0.823853 255 0 0
2.15269 -0.0549543 0.813033 255 0 0
2.15167 -0.0624935 0.813646 255 0 0
2.14913 -0.0813416 0.815176 255 0 0
2.14733 -0.100204 0.820423 255 0 0
2.13884 -0.129671 0.826238 255 0 0
2.14837 -0.0493945 0.806412 255 0 0
2.1442 -0.0923287 0.814409 255 0 0
2.13838 -0.109556 0.815616 255 0 0
2.14004 -0.0792213 0.806385 255 0 0
2.14003 -0.0919731 0.808991 255 0 0
1.81107 -1.35185 0.4927 255 0 0
2.00641 -1.23934 0.163413 255 0 0
1.48466 -1.32211 -0.192006 255 0 0
1.4795 -1.32935 -0.185579 255 0 0
1.47689 -1.33412 -0.173845 255 0 0
1.14922 -1.06828 0.421016 255 0 0
1.14108 -1.05356 0.412154 255 0 0
1.14025 -1.06087 0.417486 255 0 0
1.14037 -1.07149 0.422824 255 0 0
1.13903 -1.0777 0.425325 255 0 0
1.13231 -1.07195 0.422931 255 0 0
1.13144 -1.04434 0.406727 255 0 0
1.12151 -1.06937 0.419595 255 0 0
1.11955 -1.07863 0.42336 255 0 0
1.13216 -0.991024 0.395928 255 0 0
1.13083 -0.99741 0.398458 255 0 0
1.1295 -1.00377 0.400987 255 0 0
1.12216 -1.00163 0.399381 255 0 0
1.11091 -1.04189 0.405069 255 0 0
1.11027 -1.07108 0.416114 255 0 0
1.11138 -0.999525 0.395564 255 0 0
1.11026 -0.985389 0.390162 255 0 0
1.10909 -0.99248 0.391751 255 0 0
1.0371 -0.990694 0.361322 255 0 0
1.02998 -0.989298 0.358815 255 0 0
1.02412 -0.982293 0.352729 255 0 0
0.919698 -1.31131 -0.751399 255 0 0
2.08933 -0.0199276 0.892867 255 0 0
2.08114 -0.05059 0.898977 255 0 0
2.07966 -0.0608595 0.900138 255 0 0
2.07616 -0.0917628 0.902971 255 0 0
2.07607 -0.102197 0.903159 255 0 0
2.07505 -0.112541 0.903999 255 0 0
2.07407 -0.119404 0.904774 255 0 0
2.06985 -0.139995 0.904209 255 0 0
2.09216 -0.0023917 0.883102 255 0 0
2.08401 -0.0204973 0.88653 255 0 0
2.0735 -0.0603326 0.89695 255 0 0
2.07295 -0.0706801 0.897457 255 0 0
2.07161 -0.0809962 0.894727 255 0 0
2.07104 -0.0913957 0.895237 255 0 0
2.06938 -0.119193 0.896719 255 0 0
2.08773 -0.00885121 0.878678 255 0 0
2.08011 -0.0293986 0.884331 255 0 0
2.07448 -0.0498507 0.884731 255 0 0
2.07207 -0.0601295 0.88656 255 0 0
2.07105 -0.070508 0.8874 255 0 0
2.06846 -0.129762 0.89368 255 0 0
2.06639 -0.15064 0.895374 255 0 0
2.06672 -0.161315 0.895249 255 0 0
2.08377 -0.0118685 0.87385 255 0 0
2.07659 -0.0359624 0.879248 255 0 0
2.07468 -0.0428251 0.880692 255 0 0
2.0692 -0.0808433 0.88499 255 0 0
2.06863 -0.0913056 0.885505 255 0 0
2.06759 -0.101735 0.886349 255 0 0
2.07112 -0.0494466 0.875598 255 0 0
1.78239 -1.33177 0.52727 255 0 0
1.77474 -1.3319 0.522322 255 0 0
1.77188 -1.33849 0.525511 255 0 0
1.78051 -1.19239 0.502779 255 0 0
1.75832 -1.32114 0.512185 255 0 0
1.75787 -1.32968 0.514589 255 0 0
2.00132 -1.2433 0.162817 255 0 0
1.72822 0.438193 0.614122 255 0 0
0.852099 -1.32342 -0.803641 255 0 0
1.12801 -0.955161 0.533081 255 0 0
1.12651 -0.959981 0.536621 255 0 0
1.12231 -0.969823 0.538984 255 0 0
1.12014 -0.979285 0.54305 255 0 0
1.1203 -0.98993 0.546994 255 0 0
1.1187 -1.00012 0.548645 255 0 0
1.11562 -1.01492 0.553811 255 0 0
1.11238 -1.02239 0.562641 255 0 0
1.12098 -0.951576 0.533427 255 0 0
1.11496 -0.982326 0.542907 255 0 0
1.11047 -0.998619 0.543674 255 0 0
1.11009 -1.01247 0.548317 255 0 0
1.10262 -1.02747 0.570027 255 0 0
1.10759 -0.988844 0.540417 255 0 0
1.10353 -1.01071 0.546401 255 0 0
1.09581 -1.0236 0.57043 255 0 0
1.10182 -0.978881 0.539081 255 0 0
1.10095 -0.986717 0.538961 255 0 0
1.09979 -0.99297 0.540674 255 0 0
1.0922 -0.99155 0.542839 255 0 0
1.83138 -1.3209 0.487935 255 0 0
1.82884 -1.32875 0.490645 255 0 0
1.82104 -1.29855 0.483836 255 0 0
1.82032 -1.30906 0.484352 255 0 0
1.82129 -1.31961 0.486894 255 0 0
1.81781 -1.33103 0.487472 255 0 0
1.81945 -1.29033 0.478674 255 0 0
1.81423 -1.30019 0.477167 255 0 0
1.81225 -1.32048 0.478924 255 0 0
1.81061 -1.33907 0.484353 255 0 0
1.81005 -1.34776 0.482923 255 0 0
1.80859 -1.35717 0.48424 255 0 0
1.78848 -1.43094 0.503918 255 0 0
1.7838 -1.42419 0.496555 255 0 0
1.77987 -1.44121 0.500563 255 0 0
1.98108 -1.24105 0.223135 255 0 0
1.97507 -1.24694 0.230509 255 0 0
1.80958 0.506601 0.375563 255 0 0
1.80381 0.497166 0.369099 255 0 0
1.80262 0.498838 0.357111 255 0 0
0.401234 -1.22299 0.428649 255 0 0
1.75342 -1.0247 0.10635 255 0 0
1.23251 -1.21818 0.474704 255 0 0
1.21051 -1.21911 0.476254 255 0 0
1.20278 -1.21075 0.464755 255 0 0
1.20195 -1.20353 0.445012 255 0 0
1.19757 -1.20245 0.454814 255 0 0
1.19661 -1.20753 0.459179 255 0 0
1.19033 -1.20385 0.454021 255 0 0
1.1841 -1.20979 0.470443 255 0 0
1.18131 -1.21065 0.47836 255 0 0
1.07932 -1.03991 0.598224 255 0 0
0.982484 -0.960683 0.441015 255 0 0
0.975846 -0.957927 0.440452 255 0 0
0.971399 -0.940145 0.438861 255 0 0
0.970292 -0.947287 0.439861 255 0 0
0.958755 -0.930064 0.438774 255 0 0
0.956449 -0.942411 0.443162 255 0 0
0.949295 -0.940974 0.446057 255 0 0
0.942236 -0.940268 0.448016 255 0 0
1.78565 -1.42172 0.501112 255 0 0
1.78728 -1.43609 0.498511 255 0 0
0.642027 -1.31454 -0.469225 255 0 0
1.76933 0.565604 0.360474 255 0 0
1.24956 -1.22164 0.551559 255 0 0
1.23489 -1.21703 0.547486 255 0 0
1.22461 -1.21606 0.552308 255 0 0
1.23793 -1.18904 0.484782 255 0 0
1.52035 -1.43404 -0.31277 255 0 0
1.23063 -1.18765 0.481835 255 0 0
1.19392 -1.20469 0.461253 255 0 0
1.07969 -1.00004 0.684444 255 0 0
1.07626 -0.982201 0.680678 255 0 0
1.07087 -0.991665 0.683917 255 0 0
1.06946 -1.00169 0.684741 255 0 0
1.06215 -0.96929 0.677772 255 0 0
1.06074 -0.964959 0.673126 255 0 0
1.05065 -0.96083 0.675847 255 0 0
1.05115 -0.965854 0.683352 255 0 0
1.05051 -0.957831 0.666132 255 0 0
1.04114 -0.987444 0.686844 255 0 0
1.04684 -0.950521 0.659027 255 0 0
1.03715 -0.956423 0.668111 255 0 0
1.03113 -0.960671 0.67667 255 0 0
1.03253 -0.964674 0.681519 255 0 0
1.02173 -0.971424 0.68563 255 0 0
1.01211 -0.96863 0.685177 255 0 0
0.980556 -0.947928 0.443569 255 0 0
0.801016 -0.834671 0.481339 255 0 0
0.799466 -0.844207 0.482836 255 0 0
0.796886 -0.842974 0.477757 255 0 0
0.792717 -0.831122 0.480807 255 0 0
0.788664 -0.838681 0.478236 255 0 0
0.78126 -0.84263 0.474985 255 0 0
0.770302 -0.840193 0.475205 255 0 0
0.772746 -0.84659 0.477684 255 0 0
0.772035 -0.814454 0.479935 255 0 0
0.762174 -0.822114 0.47842 255 0 0
0.762205 -0.832565 0.477168 255 0 0
0.762494 -0.837644 0.4829 255 0 0
1.77228 -1.13243 0.607186 255 0 0
1.18895 -1.33978 0.394438 255 0 0
1.17193 -1.32169 0.372128 255 0 0
1.17056 -1.32133 0.366 255 0 0
0.326035 1.20539 -0.579884 255 0 0
1.67026 -1.15197 0.239024 255 0 0
0.780609 -0.897292 0.415004 255 0 0
1.73853 0.448883 0.635459 255 0 0
1.75162 0.417116 0.625777 255 0 0
1.76098 0.367857 0.612392 255 0 0
1.7681 0.356971 0.607814 255 0 0
1.77321 0.34089 0.602249 255 0 0
1.77116 0.330691 0.59797 255 0 0
1.74013 0.419459 0.625911 255 0 0
1.75818 0.364605 0.609053 255 0 0
1.76403 0.349057 0.602572 255 0 0
1.7652 0.343475 0.601273 255 0 0
1.77231 0.318669 0.593404 255 0 0
1.73446 0.465744 0.626117 255 0 0
1.73074 0.440172 0.625485 255 0 0
1.75854 0.355644 0.598894 255 0 0
1.76142 0.347761 0.595658 255 0 0
1.76429 0.339791 0.592439 255 0 0
1.76656 0.328412 0.589865 255 0 0
1.73358 0.468742 0.61775 255 0 0
1.73311 0.429717 0.615669 255 0 0
1.76272 0.338875 0.584223 255 0 0
1.76515 0.33059 0.581443 255 0 0
1.76701 0.325112 0.579317 255 0 0
1.83536 -1.32319 0.493027 255 0 0
1.75067 0.353459 0.582921 255 0 0
1.75872 0.339976 0.575288 255 0 0
1.82309 -1.34067 0.492493 255 0 0
1.81814 -1.35716 0.497999 255 0 0
1.72563 0.460052 0.607686 255 0 0
1.75821 0.330271 0.568971 255 0 0
1.72404 0.459852 0.599843 255 0 0
1.72671 0.435575 0.596454 255 0 0
1.74841 0.346048 0.565032 255 0 0
1.75369 0.331263 0.563885 255 0 0
1.80896 -1.33164 0.479911 255 0 0
1.74325 0.351491 0.565967 255 0 0
1.74038 0.350085 0.555422 255 0 0
1.74355 0.339065 0.554992 255 0 0
1.73716 0.354808 0.552333 255 0 0
1.73506 0.350703 0.544147 255 0 0
1.97718 -1.24383 0.217971 255 0 0
1.72438 0.361415 0.535895 255 0 0
1.72322 0.52038 0.475501 255 0 0
1.1613 -1.4191 0.196531 255 0 0
1.15634 -1.41159 0.230236 255 0 0
1.15425 -1.42177 0.203843 255 0 0
1.14995 -1.4018 0.186534 255 0 0
1.14992 -1.41467 0.193688 255 0 0
1.14143 -1.4094 0.195109 255 0 0
1.13029 -1.4036 0.186555 255 0 0
1.1209 -1.40361 0.165938 255 0 0
1.1176 -1.40719 0.170421 255 0 0
1.30688 -1.36681 0.187634 255 0 0
1.85883 0.373141 0.475637 255 0 0
1.81891 -0.561081 0.0741432 255 0 0
1.45495 -1.22309 -0.0752748 255 0 0
1.44631 -1.22468 -0.0840948 255 0 0
1.44172 -1.23094 -0.0751379 255 0 0
1.4343 -1.23487 -0.0872717 255 0 0
1.4268 -1.2388 -0.0994489 255 0 0
1.1458 -1.39515 0.176812 255 0 0
1.14268 -1.39888 0.184571 255 0 0
1.13958 -1.40254 0.192314 255 0 0
1.13002 -1.40087 0.176959 255 0 0
1.12065 -1.40264 0.183029 255 0 0
1.95894 -0.139714 0.425854 255 0 0
0.766956 -1.26938 0.0581776 255 0 0
0.750471 -1.22492 0.0482145 255 0 0
0.750622 -1.23392 0.0471388 255 0 0
0.711901 -1.28418 0.0444193 255 0 0
0.810338 -1.34415 0.0372791 255 0 0
0.709909 -1.22787 0.0450156 255 0 0
0.708434 -1.239 0.0375104 255 0 0
0.705303 -1.25461 0.0340965 255 0 0
0.703106 -1.26514 0.0356807 255 0 0
0.702407 -1.23921 0.0292401 255 0 0
0.69814 -1.25149 0.0275606 255 0 0
0.696653 -1.25896 0.0255642 255 0 0
0.691034 -1.26769 0.0247441 255 0 0
0.691667 -1.28487 0.0311221 255 0 0
0.690559 -1.24901 0.0203283 255 0 0
0.685172 -1.2787 0.0209886 255 0 0
0.681496 -1.25687 0.0167288 255 0 0
0.670598 -1.2517 0.00909711 255 0 0
0.651004 -1.26295 0.00350411 255 0 0
0.638377 -1.27299 -0.00228513 255 0 0
2.06102 -0.130748 0.322489 255 0 0
2.06018 -0.103491 0.309277 255 0 0
2.06425 -0.111877 0.29261 255 0 0
2.06462 -0.120779 0.292523 255 0 0
1.80921 -0.559658 0.0669624 255 0 0
1.85778 -0.121324 0.115524 255 0 0
1.60109 -1.43245 -0.236795 255 0 0
1.50747 -1.43739 -0.311666 255 0 0
1.17333 -1.41683 0.189512 255 0 0
1.16933 -1.41912 0.198966 255 0 0
1.17169 -1.40167 0.177211 255 0 0
1.16683 -1.41086 0.184747 255 0 0
1.13113 -1.40242 0.195881 255 0 0
0.704009 -1.25956 0.0408877 255 0 0
0.702871 -1.27037 0.03413 255 0 0
0.700147 -1.23978 0.0350056 255 0 0
0.687622 -1.26874 0.0184809 255 0 0
0.672045 -1.26685 0.0104089 255 0 0
1.34449 -0.539323 -0.368297 255 0 0
1.97086 -0.502905 0.423652 255 0 0
1.17905 -1.4238 0.157922 255 0 0
1.17613 -1.4309 0.162757 255 0 0
1.16054 -1.4106 0.205641 255 0 0
1.13102 -1.42548 0.0895799 255 0 0
1.11793 -1.42624 0.0958053 255 0 0
1.36392 -0.561966 -0.302981 255 0 0
0.342182 -1.03089 -1.01197 255 0 0
2.09293 -0.0891532 0.297358 255 0 0
2.09264 -0.107413 0.298345 255 0 0
2.09135 -0.116189 0.29986 255 0 0
1.17051 -1.41139 0.180287 255 0 0
1.15509 -1.41309 0.166796 255 0 0
1.14087 -1.40052 0.20378 255 0 0
1.35271 -0.563659 -0.312122 255 0 0
1.34098 -0.559542 -0.304237 255 0 0
1.32265 -0.571794 -0.326871 255 0 0
1.09711 -1.31374 0.452235 255 0 0
0.710337 -1.23772 0.0407319 255 0 0
0.47975 -1.0741 -0.334909 255 0 0
1.70535 -0.0150142 0.64441 255 0 0
1.71349 -0.0256881 0.637914 255 0 0
2.09767 -0.122397 0.295125 255 0 0
2.09709 -0.131036 0.29613 255 0 0
1.52037 -1.35907 -0.184764 255 0 0
1.51403 -1.3591 -0.187906 255 0 0
1.4042 -0.777441 -0.299765 255 0 0
0.705538 -1.28854 0.0287517 255 0 0
0.703779 -1.21845 0.0314393 255 0 0
1.53218 -1.2741 1.21895 255 0 0
1.50149 -1.30599 1.24202 255 0 0
1.49727 -1.30675 1.23838 255 0 0
1.49115 -1.30584 1.24176 255 0 0
1.4931 -1.30369 1.23406 255 0 0
1.4838 -1.31278 1.2348 255 0 0
1.47913 -1.31683 1.23196 255 0 0
1.47645 -1.32694 1.22254 255 0 0
1.46908 -1.3311 1.22127 255 0 0
1.90337 -0.350746 0.505346 255 0 0
1.68923 -0.26491 0.652316 255 0 0
1.77749 -1.14013 0.616043 255 0 0
1.7612 -1.14236 0.613162 255 0 0
1.6887 -1.43294 0.0350243 255 0 0
1.72597 -1.41366 -0.0576166 255 0 0
1.71893 -1.42051 -0.0481289 255 0 0
1.598 -1.31088 -0.0958329 255 0 0
1.31767 -0.560098 -0.39319 255 0 0
1.3105 -0.568593 -0.393758 255 0 0
1.30485 -0.567125 -0.39135 255 0 0
0.761454 -0.900046 0.408986 255 0 0
1.68708 0.000747635 0.657288 255 0 0
1.68538 -0.00460159 0.659273 255 0 0
1.69374 -0.0210927 0.654431 255 0 0
1.70038 -0.0197867 0.642962 255 0 0
1.70922 -0.0298524 0.634177 255 0 0
1.71087 -0.0222356 0.627246 255 0 0
1.69265 -1.44045 0.0467919 255 0 0
1.74934 -1.40906 -0.0449389 255 0 0
1.6824 -1.43695 0.0439945 255 0 0
1.74584 -1.41618 -0.061865 255 0 0
1.72133 -1.41957 -0.0644715 255 0 0
1.58565 -1.34026 -0.127932 255 0 0
1.58012 -1.33258 -0.143707 255 0 0
1.57924 -1.33961 -0.135935 255 0 0
1.57139 -1.33361 -0.153071 255 0 0
1.51857 -1.31473 -0.130274 255 0 0
1.33095 -0.569027 -0.363181 255 0 0
1.32206 -0.552849 -0.352725 255 0 0
1.31822 -0.56397 -0.348148 255 0 0
1.31017 -0.570384 -0.343942 255 0 0
1.29327 -0.559392 -0.335901 255 0 0
1.29032 -0.567665 -0.333923 255 0 0
0.710648 -1.25495 0.0544906 255 0 0
0.708511 -1.27249 0.0445611 255 0 0
0.706428 -1.29294 0.0310153 255 0 0
0.706035 -1.24867 0.0437195 255 0 0
0.702683 -1.22959 0.0345445 255 0 0
1.67968 -1.13426 0.253625 255 0 0
2.08508 -0.108281 0.291015 255 0 0
1.82925 -0.552497 0.0580103 255 0 0
1.75879 -1.41799 -0.0461838 255 0 0
1.7493 -1.41265 -0.0509763 255 0 0
1.74672 -1.42639 -0.0461883 255 0 0
1.72863 -1.43109 -0.0450487 255 0 0
1.72345 -1.42207 -0.0567117 255 0 0
1.71202 -1.41908 -0.0641847 255 0 0
1.7048 -1.42717 -0.052666 255 0 0
1.70309 -1.40559 -0.0701606 255 0 0
1.59957 -1.35094 -0.133378 255 0 0
1.58873 -1.34939 -0.139085 255 0 0
1.5509 -1.3683 -0.147641 255 0 0
1.55206 -1.35153 -0.173897 255 0 0
1.31942 -0.569125 -0.395812 255 0 0
0.706904 -1.27071 0.023669 255 0 0
0.704476 -1.22401 0.00652886 255 0 0
1.89045 -0.547328 0.554613 255 0 0
1.68941 -0.260217 0.647761 255 0 0
2.06805 -0.122206 0.314092 255 0 0
2.06764 -0.102384 0.297926 255 0 0
2.07077 -0.109809 0.298336 255 0 0
2.06837 -0.108875 0.287529 255 0 0
1.70851 -1.43857 0.0617139 255 0 0
1.75557 -1.4226 -0.0407255 255 0 0
1.74532 -1.42219 -0.0480202 255 0 0
1.7396 -1.42935 -0.0435525 255 0 0
0.596432 -1.16748 -0.549121 255 0 0
1.35394 -0.564213 -0.346143 255 0 0
1.34235 -0.563526 -0.343412 255 0 0
1.30772 -0.5619 -0.333989 255 0 0
1.30217 -0.548253 -0.34513 255 0 0
1.29125 -0.562021 -0.344097 255 0 0
1.28051 -0.545 -0.342791 255 0 0
0.691923 -1.34418 -0.240957 255 0 0
0.683185 -1.34142 -0.24331 255 0 0
0.669365 -1.35176 -0.231289 255 0 0
0.664203 -1.34438 -0.243823 255 0 0
1.84264 -1.12652 0.136238 255 0 0
2.08544 -0.096805 0.298574 255 0 0
1.68371 -0.253484 0.648123 255 0 0
1.83007 -0.571155 0.0733555 255 0 0
1.39306 -0.9908 0.560124 255 0 0
1.65627 -1.29905 -0.0320935 255 0 0
1.59151 -1.28834 -0.0955678 255 0 0
1.61197 -1.35281 -0.118995 255 0 0
1.57182 -1.29309 -0.106219 255 0 0
1.54779 -1.30759 -0.104174 255 0 0
1.48094 -1.29061 -0.175102 255 0 0
0.760464 -1.37989 -0.281651 255 0 0
0.760425 -1.39085 -0.273523 255 0 0
0.750958 -1.38952 -0.280649 255 0 0
1.86477 -0.136818 0.6274 255 0 0
1.86615 -0.142132 0.627928 255 0 0
1.95947 -0.139939 0.415349 255 0 0
1.76649 -1.41931 -0.0408215 255 0 0
1.74535 -1.41896 -0.0546157 255 0 0
1.73423 -1.41907 -0.0638738 255 0 0
1.72043 -1.43286 -0.0411953 255 0 0
1.55995 -1.36358 -0.159007 255 0 0
1.15744 -1.31189 0.416528 255 0 0
1.4394 -0.791116 -0.256479 255 0 0
1.43624 -0.799953 -0.252479 255 0 0
1.41301 -0.840333 -0.212065 255 0 0
1.43119 -0.791114 -0.264823 255 0 0
1.41911 -0.791176 -0.27286 255 0 0
0.333794 -1.23468 -0.0298421 255 0 0
0.771173 -1.39206 -0.266181 255 0 0
0.767625 -1.39864 -0.257415 255 0 0
1.40131 -0.54086 0.224282 255 0 0
0.706624 -1.38525 -0.346202 255 0 0
0.697976 -1.38131 -0.352782 255 0 0
1.99834 -0.372434 0.526289 255 0 0
1.95533 -0.151931 0.419248 255 0 0
2.08076 -0.119553 0.294785 255 0 0
1.89004 -0.540149 0.549746 255 0 0
1.81827 -0.54725 0.0712813 255 0 0
1.78313 -0.971764 0.0774856 255 0 0
1.70917 -1.43837 0.0591757 255 0 0
1.71993 -1.40957 -0.0651595 255 0 0
1.60191 -1.30656 -0.0864377 255 0 0
1.61999 -1.37371 -0.123647 255 0 0
1.56085 -1.36406 -0.142108 255 0 0
1.55363 -1.36403 -0.148924 255 0 0
1.5441 -1.36498 -0.157089 255 0 0
1.53051 -1.35417 -0.201675 255 0 0
1.47283 -1.33824 -0.178902 255 0 0
1.3342 -0.736614 -0.283636 255 0 0
1.32004 -0.52212 -0.295352 255 0 0
1.3294 -0.548915 -0.3506 255 0 0
1.32282 -0.568301 -0.361798 255 0 0
0.786441 -0.84555 0.486389 255 0 0
0.773414 -1.38271 -0.268364 255 0 0
0.764429 -1.38382 -0.276061 255 0 0
0.704841 -1.38932 -0.346255 255 0 0
0.690746 -1.38716 -0.351942 255 0 0
0.687641 -1.37994 -0.362273 255 0 0
1.74221 -0.390274 0.717801 255 0 0
1.95183 -0.134286 0.424336 255 0 0
1.9522 -0.552038 0.514793 255 0 0
1.94228 -0.579376 0.510021 255 0 0
1.94614 -0.543779 0.488101 255 0 0
1.84964 -0.122465 0.109376 255 0 0
1.83652 -0.116022 0.110578 255 0 0
1.83846 -0.129581 0.110534 255 0 0
0.492144 -1.14963 -0.343001 255 0 0
1.43573 -1.24309 -0.0955792 255 0 0
0.704683 -1.37929 -0.348046 255 0 0
0.691931 -1.38741 -0.347109 255 0 0
0.653529 -1.43521 -0.316561 255 0 0
0.334834 -1.25435 -1.26175 255 0 0
0.490749 -1.34036 -0.0627249 255 0 0
2.01578 -0.617051 0.441915 255 0 0
1.83516 -0.121012 0.123512 255 0 0
1.70966 -1.43388 0.0649215 255 0 0
1.69802 -1.42903 0.0403252 255 0 0
1.61536 -1.35563 -0.119592 255 0 0
1.60126 -1.36579 -0.12045 255 0 0
1.59048 -1.35082 -0.126133 255 0 0
1.58026 -1.34842 -0.135621 255 0 0
1.57367 -1.34061 -0.145274 255 0 0
1.53465 -1.35778 -0.176634 255 0 0
1.47899 -1.29644 -0.173911 255 0 0
1.35112 -0.540128 -0.382417 255 0 0
1.33351 -0.53831 -0.392971 255 0 0
1.33313 -0.548243 -0.395568 255 0 0
1.32661 -0.549689 -0.399693 255 0 0
1.30782 -0.565503 -0.385876 255 0 0
-0.371083 1.15812 -1.27546 255 0 0
1.83036 -0.569128 0.0626165 255 0 0
1.68713 -1.41201 0.0155956 255 0 0
1.47683 -1.22022 -0.0669691 255 0 0
1.45886 -1.23105 -0.0738002 255 0 0
1.44171 -1.23003 -0.0817924 255 0 0
1.40645 -0.537724 -0.358509 255 0 0
1.36681 -0.534846 -0.370409 255 0 0
1.32713 -0.531821 -0.381102 255 0 0
1.32947 -0.549573 -0.384143 255 0 0
1.31855 -0.552886 -0.39541 255 0 0
1.95041 -0.548539 0.535654 255 0 0
1.95879 -0.552904 0.512629 255 0 0
1.95926 -0.550537 0.50263 255 0 0
1.95068 -0.570662 0.513846 255 0 0
1.95248 -0.568712 0.502858 255 0 0
1.94834 -0.568993 0.496845 255 0 0
1.93515 -0.580547 0.509644 255 0 0
2.04368 -0.641958 0.366282 255 0 0
1.78021 -0.981451 0.0862152 255 0 0
1.7505 -1.18836 0.0864356 255 0 0
1.60522 -1.29527 -0.0787155 255 0 0
1.59501 -1.29465 -0.0846254 255 0 0
1.58182 -1.28746 -0.106348 255 0 0
1.57736 -1.29643 -0.100849 255 0 0
1.56895 -1.29782 -0.109722 255 0 0
1.47914 -1.29521 -0.167735 255 0 0
1.3837 -0.54068 -0.35826 255 0 0
1.37357 -0.541949 -0.358829 255 0 0
1.36344 -0.540904 -0.361007 255 0 0
1.35334 -0.539861 -0.363169 255 0 0
1.34695 -0.559514 -0.354547 255 0 0
1.32877 -0.561011 -0.364484 255 0 0
1.31948 -0.538376 -0.387692 255 0 0
1.31885 -0.550777 -0.383225 255 0 0
1.30527 -0.562321 -0.361611 255 0 0
0.706612 -1.21312 0.0374014 255 0 0
0.439114 -1.33625 -0.0217001 255 0 0
0.430555 -1.33353 -0.0180364 255 0 0
2.08156 -0.643359 0.345934 255 0 0
1.58444 -1.33612 -0.144036 255 0 0
1.5187 -1.30424 -0.126915 255 0 0
1.45448 -1.23279 -0.0806039 255 0 0
1.42148 -0.80086 -0.264185 255 0 0
1.41053 -0.815876 -0.246307 255 0 0
1.39257 -0.836746 -0.216141 255 0 0
1.41578 -0.773972 -0.293917 255 0 0
0.756082 -0.890661 0.418346 255 0 0
2.01482 -0.610276 0.450109 255 0 0
2.08575 -0.663732 0.345787 255 0 0
1.78485 -1.00359 0.0916879 255 0 0
1.0222 -1.43759 -0.754078 255 0 0
1.33123 -0.560528 -0.373339 255 0 0
1.83876 -0.556724 0.0753706 255 0 0
1.7764 -1.41051 -0.0435417 255 0 0
1.65854 -1.29262 -0.0354176 255 0 0
1.59085 -1.3024 -0.0845644 255 0 0
1.53245 -1.32632 -0.124183 255 0 0
1.52148 -1.32413 -0.128443 255 0 0
1.49277 -1.2901 -0.165975 255 0 0
1.32855 -0.576121 -0.328828 255 0 0
1.32574 -0.571288 -0.37021 255 0 0
1.30514 -0.571019 -0.322857 255 0 0
0.754645 -0.904005 0.412504 255 0 0
0.667743 -1.43276 -0.315866 255 0 0
0.639308 -1.4345 -0.339079 255 0 0
0.44937 -1.28943 -0.623617 255 0 0
1.80837 -0.554426 0.0554748 255 0 0
1.7495 -1.18577 0.0976332 255 0 0
1.74864 -1.17928 0.0846229 255 0 0
1.60243 -1.32081 0.00827454 255 0 0
1.34289 -0.538264 -0.291786 255 0 0
1.34172 -0.547187 -0.294696 255 0 0
1.32878 -0.544029 -0.286304 255 0 0
1.318 -0.525596 -0.302232 255 0 0
0.603032 -0.615934 -0.550854 255 0 0
1.48865 -0.939364 -0.0802747 255 0 0
1.47065 -0.840109 -0.0841286 255 0 0
1.31382 -0.705085 -0.274707 255 0 0
-0.45949 1.14227 -1.11824 255 0 0
2.0614 -0.984374 0.267015 255 0 0
1.74539 -1.18412 0.109182 255 0 0
0.76986 -1.29328 0.0562182 255 0 0
1.74405 -1.19794 0.107358 255 0 0
1.49595 -1.10853 0.177509 255 0 0
0.52381 -1.33379 0.104418 255 0 0
-0.377944 1.14822 -1.28277 255 0 0
2.05641 -0.995958 0.265194 255 0 0
1.83826 -1.11297 0.133331 255 0 0
1.6696 -1.16246 0.260192 255 0 0
1.66698 -1.19447 0.261088 255 0 0
1.66866 -1.13187 0.246436 255 0 0
1.66787 -1.15119 0.251455 255 0 0
1.66297 -1.22157 0.250976 255 0 0
1.66971 -1.13978 0.238943 255 0 0
1.66351 -1.14505 0.242847 255 0 0
1.66392 -1.15855 0.242873 255 0 0
1.66361 -1.16933 0.242737 255 0 0
1.66147 -1.19082 0.242816 255 0 0
1.60227 -1.31791 0.291238 255 0 0
1.60312 -1.31401 0.278375 255 0 0
1.58109 -1.29243 -0.0881777 255 0 0
0.473807 -0.881887 -0.703225 255 0 0
0.210162 -1.33986 -0.115031 255 0 0
1.73725 -1.21001 0.216963 255 0 0
1.71776 -1.24915 0.235057 255 0 0
1.73128 -1.12756 0.212957 255 0 0
1.70482 -1.31901 0.225214 255 0 0
1.71274 -1.13445 0.206536 255 0 0
1.70611 -1.14099 0.196494 255 0 0
1.41958 -0.527996 -0.203637 255 0 0
1.35944 -0.547795 -0.359794 255 0 0
0.474141 -0.874947 -0.701913 255 0 0
1.71609 -1.25972 0.237802 255 0 0
1.72319 -1.21295 0.222269 255 0 0
1.71129 -1.23877 0.227415 255 0 0
1.7107 -1.26669 0.21846 255 0 0
1.70836 -1.11648 0.19373 255 0 0
1.83038 -0.561372 0.0748318 255 0 0
1.76552 -1.33786 0.0041027 255 0 0
0.31916 -1.34025 -0.0642808 255 0 0
1.38371 -0.982124 0.584078 255 0 0
1.38028 -1.0212 0.585021 255 0 0
1.38621 -0.989252 0.574214 255 0 0
1.38522 -1.00107 0.574438 255 0 0
1.38293 -1.01357 0.574096 255 0 0
1.39308 -0.99246 0.560943 255 0 0
1.84725 -1.11693 0.151237 255 0 0
1.84382 -1.11863 0.142171 255 0 0
1.83552 -1.10922 0.125839 255 0 0
1.82625 -1.11376 0.133279 255 0 0
1.67187 -1.16827 0.25315 255 0 0
1.67106 -1.1762 0.258793 255 0 0
1.68215 -1.12389 0.242149 255 0 0
1.6701 -1.15059 0.244929 255 0 0
1.6172 -1.30196 0.284058 255 0 0
1.60981 -1.31768 0.289153 255 0 0
1.60371 -1.31158 0.283629 255 0 0
1.66334 -1.16359 0.232922 255 0 0
1.66095 -1.17282 0.234196 255 0 0
1.65823 -1.18175 0.235775 255 0 0
1.65681 -1.19197 0.236148 255 0 0
1.78549 -1.27029 0.0811442 255 0 0
0.356325 -1.22851 0.400469 255 0 0
1.8731 -0.76461 0.245336 255 0 0
1.87239 -0.773751 0.245449 255 0 0
1.87011 -0.782946 0.246876 255 0 0
1.86811 -0.801107 0.247483 255 0 0
1.86484 -0.80919 0.244495 255 0 0
1.86324 -0.818039 0.245263 255 0 0
1.86699 -0.773658 0.234754 255 0 0
1.86293 -0.78276 0.235305 255 0 0
1.86183 -0.801497 0.235136 255 0 0
1.86027 -0.829957 0.234788 255 0 0
1.86048 -0.80268 0.226257 255 0 0
1.8555 -0.81796 0.231174 255 0 0
1.84312 -0.578831 0.194974 255 0 0
1.7223 -1.16553 0.250631 255 0 0
1.68157 -1.14367 0.252426 255 0 0
1.67904 -1.17535 0.252079 255 0 0
1.66894 -1.13966 0.246819 255 0 0
1.66788 -1.19306 0.248898 255 0 0
1.66652 -1.20332 0.249204 255 0 0
1.65921 -1.22515 0.242454 255 0 0
1.66506 -1.13239 0.234284 255 0 0
1.66508 -1.14373 0.233319 255 0 0
1.66373 -1.15387 0.233583 255 0 0
1.20587 -1.39336 0.143778 255 0 0
-0.706292 -1.11067 -0.744161 255 0 0
0.527696 -1.32771 0.0956888 255 0 0
1.86916 -0.822709 0.245886 255 0 0
1.86516 -0.764677 0.242305 255 0 0
1.86639 -0.794007 0.239826 255 0 0
1.86732 -0.804164 0.238605 255 0 0
1.8674 -0.813927 0.238018 255 0 0
1.37159 -1.02391 0.580929 255 0 0
1.86035 -0.773435 0.235732 255 0 0
1.38157 -1.00894 0.567371 255 0 0
1.37575 -1.0157 0.571175 255 0 0
1.37259 -1.02095 0.573156 255 0 0
1.84992 -1.03452 0.186803 255 0 0
1.84423 -1.01186 0.181995 255 0 0
1.84562 -1.03495 0.179336 255 0 0
1.83258 -0.558404 0.212979 255 0 0
1.83861 -0.586819 0.206353 255 0 0
1.849 -1.11343 0.149238 255 0 0
1.71323 -1.26064 0.231263 255 0 0
1.70907 -1.2865 0.221566 255 0 0
1.82449 -1.11868 0.133982 255 0 0
0.361486 -0.876891 -0.326631 255 0 0
0.337619 -0.831553 -0.370661 255 0 0
0.336682 -0.838245 -0.360145 255 0 0
0.302645 -0.917172 -0.309485 255 0 0
0.337467 -0.817715 -0.381083 255 0 0
0.33464 -0.824211 -0.376116 255 0 0
0.293714 -0.920238 -0.307542 255 0 0
0.301729 -0.843153 -0.342942 255 0 0
0.307852 -0.807258 -0.372441 255 0 0
0.30227 -0.800865 -0.376299 255 0 0
0.191019 -1.03166 -0.144633 255 0 0
0.193745 -1.03686 -0.140161 255 0 0
0.190363 -1.04461 -0.127935 255 0 0
0.191608 -1.02442 -0.152024 255 0 0
0.182066 -1.04694 -0.125858 255 0 0
0.184244 -1.02422 -0.145941 255 0 0
0.179618 -1.03539 -0.138648 255 0 0
1.58585 -0.88407 0.341856 255 0 0
1.58149 -0.890127 0.344493 255 0 0
1.58135 -0.883747 0.336528 255 0 0
1.74398 -1.19463 0.104146 255 0 0
1.79018 -1.14121 0.062066 255 0 0
1.75732 -1.17466 0.0843733 255 0 0
1.18325 -1.40903 0.168759 255 0 0
1.17275 -1.42267 0.164209 255 0 0
0.986548 -1.47853 0.357636 255 0 0
0.980793 -1.48324 0.355455 255 0 0
1.1625 -1.42236 0.162802 255 0 0
1.16256 -1.42121 0.14995 255 0 0
0.978109 -1.46827 0.335889 255 0 0
0.960364 -1.47389 0.331843 255 0 0
0.943583 -1.48254 0.325843 255 0 0
0.339362 -1.26717 -1.28393 255 0 0
0.349202 -1.02183 -1.00335 255 0 0
0.343404 -1.03317 -0.996786 255 0 0
0.297805 -0.983316 -0.796756 255 0 0
0.0782835 -0.979606 0.0778709 255 0 0
0.0787133 -0.970265 0.0744504 255 0 0
0.0746562 -0.964189 0.0687251 255 0 0
0.0631859 -0.995032 0.0810941 255 0 0
1.10837 -1.31269 0.442861 255 0 0
1.1022 -1.31225 0.448173 255 0 0
1.1098 -1.30979 0.433077 255 0 0
1.10276 -1.3034 0.43515 255 0 0
1.08942 -1.30884 0.45128 255 0 0
1.12681 -1.29839 0.412439 255 0 0
1.11647 -1.30209 0.420712 255 0 0
1.1108 -1.30289 0.425465 255 0 0
1.11983 -1.28401 0.41233 255 0 0
1.11898 -1.29108 0.414217 255 0 0
1.41541 -0.524923 -0.207102 255 0 0
1.16237 -1.30708 0.425805 255 0 0
1.17273 -1.30135 0.414305 255 0 0
1.1646 -1.30423 0.420359 255 0 0
1.14485 -1.3143 0.434556 255 0 0
1.18912 -1.28718 0.395034 255 0 0
1.1522 -1.31183 0.412414 255 0 0
1.14154 -1.31551 0.420506 255 0 0
1.04602 -1.24804 0.510279 255 0 0
1.04755 -1.23931 0.502992 255 0 0
1.03988 -1.23957 0.505488 255 0 0
1.02433 -1.24505 0.513661 255 0 0
-0.464323 1.14385 -1.13124 255 0 0
1.3196 -0.826527 0.358589 255 0 0
1.12282 -1.28963 0.40811 255 0 0
0.368873 -1.22537 0.407057 255 0 0
1.31055 -1.39361 0.222568 255 0 0
1.30682 -1.40081 0.224336 255 0 0
1.30459 -1.36892 0.191047 255 0 0
0.339247 -1.25044 -1.2557 255 0 0
1.39772 -0.563311 0.231565 255 0 0
1.37923 -0.591288 0.235484 255 0 0
1.38851 -0.568985 0.224644 255 0 0
1.38773 -0.576448 0.228268 255 0 0
1.37622 -0.5888 0.226462 255 0 0
1.37722 -0.582255 0.217755 255 0 0
1.38115 -0.551893 0.207143 255 0 0
1.37874 -0.56722 0.210468 255 0 0
1.37326 -0.58158 0.212076 255 0 0
1.36937 -0.561359 0.196545 255 0 0
1.36798 -0.572968 0.199864 255 0 0
1.36523 -0.58019 0.200673 255 0 0
1.3598 -0.571482 0.188394 255 0 0
1.35703 -0.578745 0.189208 255 0 0
1.35496 -0.570323 0.183399 255 0 0
1.35218 -0.577601 0.184214 255 0 0
1.31981 -0.591405 0.176784 255 0 0
1.36133 -0.554657 -0.293499 255 0 0
1.36186 -0.566673 -0.299674 255 0 0
0.559947 -1.40795 -1.17778 255 0 0
0.860921 -1.33176 -0.795815 255 0 0
0.900665 -1.41221 -0.623074 255 0 0
0.358099 -1.04539 -0.959673 255 0 0
1.01269 -1.43736 -0.745675 255 0 0
0.337539 -1.26387 -1.27104 255 0 0
0.619694 1.21395 -0.416098 255 0 0
0.608742 1.21153 -0.422345 255 0 0
0.597873 1.2098 -0.429646 255 0 0
0.590356 1.20848 -0.412705 255 0 0
0.587064 1.20875 -0.438006 255 0 0
0.583217 1.20837 -0.397816 255 0 0
0.579432 1.21058 -0.405568 255 0 0
0.572361 1.20605 -0.404051 255 0 0
0.568664 1.20926 -0.413328 255 0 0
0.431619 1.19854 -0.345251 255 0 0
0.327748 1.19696 -0.583685 255 0 0
0.352976 1.19075 -0.318261 255 0 0
0.345462 1.19286 -0.31897 255 0 0
0.626538 1.22101 -0.40151 255 0 0
0.614223 1.21864 -0.420188 255 0 0
0.588311 1.21557 -0.395581 255 0 0
0.557806 1.21166 -0.406581 255 0 0
0.417328 1.20149 -0.338142 255 0 0
0.329085 1.17498 -0.368133 255 0 0
0.30052 1.17318 -0.382952 255 0 0
0.281735 1.17219 -0.37481 255 0 0
0.279648 1.17175 -0.360698 255 0 0
0.270102 1.17029 -0.355711 255 0 0
0.26889 1.17201 -0.382965 255 0 0
0.261117 1.16995 -0.364797 255 0 0
0.257469 1.17087 -0.377698 255 0 0
0.883964 -1.42729 -0.618865 255 0 0
0.335548 1.17619 -0.370802 255 0 0
0.329638 1.17551 -0.393026 255 0 0
0.30905 1.17452 -0.372907 255 0 0
0.301276 1.17415 -0.370067 255 0 0
0.298226 1.17206 -0.378528 255 0 0
0.26741 1.1706 -0.367126 255 0 0
0.515626 -1.33222 -0.0163524 255 0 0
0.457267 -1.34244 -0.0894778 255 0 0
0.421413 -1.33521 -0.0192655 255 0 0
0.369866 -1.34091 -0.0355089 255 0 0
0.365387 -1.33916 -0.0358887 255 0 0
0.188642 -1.31561 -0.12374 255 0 0
0.187053 -1.32097 -0.119506 255 0 0
0.185995 -1.32187 -0.111077 255 0 0
0.167525 -1.35836 -0.181643 255 0 0
0.380887 -1.10926 -0.33342 255 0 0
0.387242 -0.861491 -0.312159 255 0 0
0.518228 -1.33867 0.147931 255 0 0
0.442742 -1.29124 -0.614526 255 0 0
0.450497 -1.29887 -0.617597 255 0 0
0.470303 -1.21015 -0.487586 255 0 0
0.47529 -1.25538 -0.605411 255 0 0
0.369089 -1.10759 -0.333099 255 0 0
0.161703 -1.35967 -0.186283 255 0 0
0.460093 -1.19214 -0.0733334 255 0 0
0.509428 -1.25485 -0.621626 255 0 0
0.472796 -1.0814 -0.346659 255 0 0
0.33021 -0.847069 -0.353368 255 0 0
0.725707 -1.26565 0.0956441 255 0 0
0.16191 -1.27956 0.111474 255 0 0
0.150248 -1.32813 0.135665 255 0 0
0.148073 -1.33953 0.138548 255 0 0
0.159278 -1.29094 0.153332 255 0 0
0.157317 -1.30244 0.155927 255 0 0
0.151566 -1.31953 0.162296 255 0 0
0.15075 -1.34296 0.163455 255 0 0
0.149543 -1.35633 0.161388 255 0 0
0.15773 -1.27259 0.138545 255 0 0
0.158725 -1.27071 0.147808 255 0 0
0.154778 -1.2773 0.150011 255 0 0
0.159999 -1.28297 0.10694 255 0 0
0.709075 -1.16271 -0.267922 255 0 0
0.831491 -1.31355 0.0244412 255 0 0
0.80769 -1.35364 0.0364041 255 0 0
0.741869 -1.23174 0.0479285 255 0 0
0.65028 -1.19198 -0.655214 255 0 0
0.830283 -1.32077 0.0706371 255 0 0
0.704745 -1.1663 0.123489 255 0 0
0.429861 -1.21643 0.441196 255 0 0
0.422567 -1.21823 0.437394 255 0 0
0.400818 -1.22502 0.418914 255 0 0
0.392263 -1.2225 0.4257 255 0 0
0.392912 -1.22535 0.415822 255 0 0
0.387825 -1.22622 0.413412 255 0 0
0.380655 -1.22418 0.415229 255 0 0
0.384019 -1.23012 0.421981 255 0 0
0.380375 -1.22742 0.416161 255 0 0
0.360159 -1.22717 0.40585 255 0 0
0.344964 -1.23515 0.398355 255 0 0
0.613143 -1.21301 -0.405529 255 0 0
0.630333 -1.25965 -0.508648 255 0 0
-0.331368 1.15853 -1.31749 255 0 0
0.458949 -1.28087 -0.627385 255 0 0
0.159319 -1.30296 0.162111 255 0 0
0.1537 -1.2877 0.163587 255 0 0
0.152722 -1.2977 0.163679 255 0 0
0.149417 -1.32098 0.155738 255 0 0
0.149695 -1.33714 0.157188 255 0 0
0.144488 -1.34408 0.146078 255 0 0
0.347368 -1.03871 -0.978138 255 0 0
0.500093 -1.26074 -0.61588 255 0 0
0.77741 -1.28928 0.0586749 255 0 0
0.639493 -1.20046 -0.406118 255 0 0
0.629923 -1.20343 -0.404967 255 0 0
0.339022 -0.842803 -0.352418 255 0 0
0.161597 -1.28092 0.152485 255 0 0
0.155601 -1.27294 0.152603 255 0 0
0.350871 -1.0158 -0.994047 255 0 0
0.339704 -1.02968 -1.003 255 0 0
0.902707 -0.732244 -0.303618 255 0 0
0.894399 -0.736423 -0.301682 255 0 0
0.381713 -1.13474 -0.33609 255 0 0
0.169491 -1.29754 0.107849 255 0 0
0.168685 -1.30951 0.106779 255 0 0
0.629733 -1.2701 -0.503839 255 0 0
0.830362 -1.33172 0.0558756 255 0 0
0.832177 -1.32306 0.0234833 255 0 0
0.81948 -1.34794 0.0246687 255 0 0
0.832518 -1.32228 -0.0130677 255 0 0
0.679407 -1.21251 -0.655049 255 0 0
0.586409 -1.1939 -0.68137 255 0 0
0.481755 -1.25376 -0.606235 255 0 0
0.469928 -1.26007 -0.616021 255 0 0
0.188271 -1.27942 0.0575697 255 0 0
0.335012 -1.26669 -1.2968 255 0 0
0.821014 -1.31067 0.0215698 255 0 0
0.182937 -1.27782 0.0500217 255 0 0
0.888053 -0.727684 -0.312098 255 0 0
0.572329 -1.12356 -0.274553 255 0 0
0.160437 -1.33881 0.145625 255 0 0
0.712663 -1.34525 -0.544986 255 0 0
0.697452 -1.16536 -0.424385 255 0 0
0.672568 -1.26851 -0.503098 255 0 0
0.62978 -1.26969 -0.513705 255 0 0
0.340379 -1.24196 -1.2902 255 0 0
0.339992 -1.26183 -1.29376 255 0 0
0.862091 -1.3019 -0.814495 255 0 0
0.860234 -1.32184 -0.797657 255 0 0
0.851668 -1.3068 -0.816472 255 0 0
0.849808 -1.33558 -0.801562 255 0 0
0.623023 -1.21539 -0.382419 255 0 0
0.347835 -1.23846 -1.29204 255 0 0
0.346192 -1.25161 -1.28925 255 0 0
0.890586 -1.311 -0.783442 255 0 0
0.633011 -1.27147 -0.493245 255 0 0
0.615355 -1.29086 -0.49468 255 0 0
0.847851 -1.33557 -0.796994 255 0 0
0.845817 -1.34518 -0.791703 255 0 0
0.679411 -1.33078 -0.569566 255 0 0
0.664655 -1.33311 -0.560275 255 0 0
0.656745 -1.35791 -0.562995 255 0 0
0.8216 -1.33081 -0.574076 255 0 0
0.833179 -1.27354 -0.633386 255 0 0
0.821258 -1.26538 -0.644395 255 0 0
0.809594 -1.26634 -0.650437 255 0 0
0.808411 -1.26435 -0.666972 255 0 0
0.754527 -1.3621 -0.554668 255 0 0
0.65493 -1.31218 -0.4907 255 0 0
0.708565 -1.15271 -0.265207 255 0 0
0.916339 -1.41081 -0.600885 255 0 0
0.893786 -1.4164 -0.617995 255 0 0
0.888355 -1.4092 -0.628576 255 0 0
0.908806 -1.30947 -0.753202 255 0 0
0.881663 -1.3037 -0.796452 255 0 0
0.867523 -1.30432 -0.803148 255 0 0
0.86055 -1.30425 -0.805579 255 0 0
0.921824 -1.41191 -0.615404 255 0 0
0.888779 -1.41523 -0.635002 255 0 0
0.88897 -1.42749 -0.633778 255 0 0
0.879455 -1.43903 -0.635661 255 0 0
0.842616 -1.47586 -0.628569 255 0 0
0.869278 -1.3199 -0.805101 255 0 0
0.858911 -1.31717 -0.807342 255 0 0
0.709889 -1.15006 -0.28451 255 0 0
0.706223 -1.1614 -0.277972 255 0 0
1.03738 -1.38921 -0.78906 255 0 0
1.03357 -1.39763 -0.78229 255 0 0
0.906875 -1.41257 -0.61371 255 0 0
0.886902 -1.42059 -0.634829 255 0 0
0.714706 -1.37011 -0.602271 255 0 0
1.03114 -1.3717 -0.776082 255 0 0
1.00215 -1.43883 -0.735426 255 0 0
0.997689 -1.45015 -0.729924 255 0 0
0.853296 -1.50934 -0.739062 255 0 0
0.842759 -1.5083 -0.744926 255 0 0
0.842441 -1.49454 -0.824138 255 0 0
0.841181 -1.49086 -0.83639 255 0 0
0.828947 -1.50104 -0.842678 255 0 0
0.819478 -1.50361 -0.847853 255 0 0
0.628089 -1.32291 -0.587753 255 0 0
0.380006 -1.33835 -0.317088 255 0 0
0.373739 -1.34103 -0.322251 255 0 0
0.68116 -1.17501 -0.404705 255 0 0
0.570827 -1.12062 -0.26678 255 0 0
0.672676 -1.15232 -0.552673 255 0 0
0.664962 -1.15208 -0.555427 255 0 0
0.645807 -1.16715 -0.567991 255 0 0
0.631389 -1.17055 -0.56511 255 0 0
0.485871 -1.08117 -0.319206 255 0 0
0.631896 -1.17885 -0.575197 255 0 0
0.481291 -1.08039 -0.323916 255 0 0
0.677107 -1.2027 -0.669069 255 0 0
0.672446 -1.20439 -0.6746 255 0 0
0.653909 -1.19497 -0.646781 255 0 0
0.473365 -1.08881 -0.335818 255 0 0
0.479213 -1.04929 -0.398842 255 0 0
0.372061 -1.32611 -0.322071 255 0 0
0.46924 -1.27261 -0.613842 255 0 0
0.890212 -1.25038 -0.782404 255 0 0
0.699281 -1.26143 -0.496669 255 0 0
0.681014 -1.28178 -0.485799 255 0 0
0.670635 -1.27157 -0.494163 255 0 0
0.670836 -1.2834 -0.491672 255 0 0
0.660146 -1.31281 -0.474419 255 0 0
0.661881 -1.3125 -0.48747 255 0 0
0.652603 -1.31486 -0.465325 255 0 0
0.647415 -1.27313 -0.501453 255 0 0
0.641663 -1.26587 -0.508861 255 0 0
0.63701 -1.27935 -0.498592 255 0 0
0.626789 -1.28122 -0.49645 255 0 0
0.622146 -1.27025 -0.50683 255 0 0
0.61818 -1.29451 -0.495714 255 0 0
0.681237 -1.18059 -0.40999 255 0 0
0.677795 -1.18537 -0.403881 255 0 0
0.560661 -1.11325 -0.251255 255 0 0
0.669902 -1.17994 -0.406334 255 0 0
0.665361 -1.18774 -0.397892 255 0 0
0.646513 -1.19889 -0.406083 255 0 0
0.627477 -1.21068 -0.387935 255 0 0
0.621632 -1.21658 -0.384353 255 0 0
0.620841 -1.2065 -0.411897 255 0 0
0.61955 -1.2094 -0.402577 255 0 0
0.610362 -1.22008 -0.392878 255 0 0
0.60866 -1.21805 -0.403911 255 0 0
0.605078 -1.20899 -0.420953 255 0 0
0.592347 -1.22425 -0.404685 255 0 0
0.800573 -1.23372 -0.734872 255 0 0
0.584242 -1.21859 -0.413792 255 0 0
0.775241 -1.24998 -0.747408 255 0 0
0.636044 -1.16359 -0.568125 255 0 0
0.374722 -1.33635 -0.313578 255 0 0
1.0257 -1.3833 -0.77915 255 0 0
1.02845 -1.39962 -0.775957 255 0 0
1.02752 -1.40938 -0.773216 255 0 0
1.02203 -1.42432 -0.763599 255 0 0
0.999089 -1.44368 -0.727104 255 0 0
0.499658 -1.18988 -0.118785 255 0 0
0.46252 -1.19281 -0.0814662 255 0 0
0.500911 -1.19357 -0.140056 255 0 0
0.491363 -1.19502 -0.12631 255 0 0
0.480915 -1.19921 -0.115737 255 0 0
0.559487 -1.11774 -0.263045 255 0 0
0.479966 -1.19702 -0.141003 255 0 0
0.464713 -1.19853 -0.129252 255 0 0
0.354577 -1.28086 -0.0205229 255 0 0
0.330531 -1.23951 -0.0344385 255 0 0
0.511587 -0.992437 -0.487738 255 0 0
0.48343 -1.25683 -0.605672 255 0 0
0.481187 -1.25173 -0.61342 255 0 0
0.454459 -1.28502 -0.623255 255 0 0
0.449494 -1.28759 -0.612885 255 0 0
0.440965 -1.29827 -0.614608 255 0 0
0.348659 -1.24129 -1.28749 255 0 0
0.90705 -1.30691 -0.749115 255 0 0
0.905849 -1.30367 -0.764373 255 0 0
0.816033 -1.2634 -0.661633 255 0 0
0.879511 -1.31404 -0.787506 255 0 0
0.865779 -1.30864 -0.789346 255 0 0
0.85458 -1.30472 -0.808155 255 0 0
0.507042 -1.25189 -0.617413 255 0 0
0.476901 -1.26475 -0.615474 255 0 0
0.552352 -1.40974 -1.18538 255 0 0
1.02906 -1.43753 -0.765915 255 0 0
1.02142 -1.43064 -0.775012 255 0 0
1.02236 -1.41429 -0.793501 255 0 0
1.01877 -1.42092 -0.786248 255 0 0
1.01248 -1.4371 -0.771318 255 0 0
0.707528 -1.36648 -0.595124 255 0 0
0.57689 -1.12541 -0.279618 255 0 0
0.564625 -1.11791 -0.275747 255 0 0
-0.119724 1.21116 -0.875429 255 0 0
0.880064 -1.32152 -0.646491 255 0 0
0.815216 -1.3324 -0.577538 255 0 0
0.903024 -1.31054 -0.761994 255 0 0
0.892881 -1.3177 -0.777569 255 0 0
0.87988 -1.32432 -0.774537 255 0 0
0.861566 -1.3193 -0.813027 255 0 0
0.559872 -1.41097 -1.18475 255 0 0
0.540101 -1.41053 -1.17297 255 0 0
0.347079 -1.27223 -1.28105 255 0 0
0.680151 -1.28036 -0.492914 255 0 0
0.597201 -1.22026 -0.409745 255 0 0
0.406526 -0.875503 -0.309507 255 0 0
0.397381 -0.878347 -0.296615 255 0 0
0.399217 -0.870692 -0.312286 255 0 0
0.386188 -0.844036 -0.312934 255 0 0
0.387698 -0.878446 -0.310608 255 0 0
0.379925 -0.839542 -0.313893 255 0 0
0.3712 -0.841627 -0.315151 255 0 0
0.372932 -0.85009 -0.3166 255 0 0
0.370686 -0.821242 -0.32158 255 0 0
0.362316 -0.833416 -0.322152 255 0 0
0.363451 -0.841221 -0.322896 255 0 0
0.364696 -0.849521 -0.318953 255 0 0
0.364759 -0.872231 -0.326016 255 0 0
0.486846 -1.0861 -0.320746 255 0 0
0.488017 -1.07384 -0.333243 255 0 0
0.487202 -1.07308 -0.34139 255 0 0
0.479866 -1.0991 -0.327693 255 0 0
0.482878 -1.07496 -0.344725 255 0 0
0.47591 -1.09439 -0.33257 255 0 0
0.490234 -1.07055 -0.373684 255 0 0
0.486803 -1.07345 -0.368751 255 0 0
0.480951 -1.07317 -0.36119 255 0 0
0.474025 -1.08243 -0.355399 255 0 0
