ply
format ascii 1.0
comment Created by Open3D
element vertex 1199
property double x
property double y
property double z
property uchar red
property uchar green
property uchar blue
end_header
0.872171 -0.241257 -0.14411 110 101 87
0.540339 -0.443222 -0.146504 46 49 61
0.832757 0.615732 -0.0858397 154 157 158
0.616973 -0.542293 -0.225901 4 6 9
0.839124 -0.182598 -0.145838 135 134 134
0.750839 0.539947 -0.305509 220 226 226
0.800082 0.455565 -0.14648 26 32 31
0.816653 -0.0829904 -0.0851472 109 93 74
0.901209 -0.184078 -0.129507 206 197 180
0.857682 -0.443126 0.0922928 214 212 215
0.774255 0.37628 -0.0466481 98 103 96
0.904601 -0.555659 -0.0359961 174 179 187
0.757346 -0.380296 -0.0693628 244 237 246
0.69916 -0.521887 -0.126612 90 128 136
0.61633 -0.344528 -0.05231 135 208 234
0.921176 0.579959 -0.104893 172 174 180
0.667592 -0.422544 -0.0654253 100 175 196
0.760086 0.59709 -0.383854 179 185 185
0.961137 -0.00262496 0.0124376 183 185 185
0.879402 0.556593 0.012734 154 162 165
0.996626 -0.163264 0.0333771 102 109 110
0.78263 -0.303869 -0.143541 147 148 152
0.87779 -0.44278 -0.0533773 241 232 244
0.580438 -0.299274 -0.0516891 156 216 238
0.921719 0.316756 0.0706686 128 137 140
0.758928 0.0367816 -0.247198 82 82 75
0.520947 -0.462594 -0.146914 73 75 84
0.838947 -0.439939 0.0349183 181 177 165
1.02937 -0.292186 0.0426637 103 111 102
0.819054 -0.522388 -0.088361 66 95 102
0.59902 0.596422 -0.26712 168 171 168
0.702579 0.416864 -0.146705 100 104 99
0.721204 -0.223187 -0.228146 131 135 131
0.645121 -0.465234 -0.00731365 171 189 191
0.720798 -0.183503 -0.22764 116 121 117
0.744163 0.0565893 -0.287582 107 110 104
0.719232 -0.58393 0.0527852 220 221 218
0.739344 -0.503177 -0.305183 135 103 101
0.656998 0.579318 -0.138624 250 250 251
0.50165 -0.465913 -0.0901067 34 39 47
0.799896 -0.302929 -0.387741 105 109 105
0.762423 0.0977258 -0.11432 62 65 62
0.916209 0.279463 -0.125629 84 89 82
1.09993 -0.321212 0.011306 132 130 128
0.935464 0.553803 -0.0696256 118 122 125
0.674978 0.620065 -0.0564715 204 203 211
0.861017 0.235714 -0.0084427 133 134 127
0.660561 0.298605 -0.132412 179 183 173
1.0153 -0.304976 0.110849 119 90 95
0.796836 0.476969 -0.371287 138 145 146
0.95713 -0.181323 -0.00501343 176 178 176
0.521921 -0.36463 -0.108876 89 92 93
1.07868 -0.281935 0.0328652 140 143 139
0.819251 -0.504759 -0.0279858 44 44 41
0.519992 -0.144094 -0.164495 191 189 178
0.97125 -0.34296 0.145169 13 16 17
0.903957 0.195223 -0.091382 163 171 150
0.775735 -0.222549 -0.326787 86 89 82
0.523267 -0.383614 -0.0469094 150 153 153
0.58197 -0.302153 -0.0692028 166 206 226
0.857601 0.0560814 -0.144464 173 181 157
0.876072 -0.342915 -0.185682 108 117 115
0.996194 -0.267688 -0.00881429 149 146 147
0.602642 0.35836 -0.115015 156 162 158
0.719884 0.656196 -0.107373 204 203 207
0.857666 -0.267501 -0.0879516 106 115 106
0.924205 -0.0635893 -0.0491209 83 86 81
0.956132 0.615143 0.0327032 131 137 139
0.647425 -0.342553 -0.108225 248 248 248
0.72461 -0.40913 -0.128432 135 145 151
0.558565 -0.324262 -0.105356 108 111 118
0.878577 -0.243527 0.012737 93 97 86
1.01062 -0.414754 0.094671 151 142 137
0.939821 0.0809737 -0.140977 121 124 109
0.759181 0.477089 -0.348122 173 178 177
0.934635 0.575687 -0.107842 187 189 194
0.918799 -0.505012 -0.106452 154 160 161
0.809695 -0.235597 -0.181959 52 49 42
0.820122 0.596493 -0.0680624 137 140 138
0.960633 0.518212 -0.122487 203 203 208
0.976958 -0.0828824 0.0924097 89 101 106
0.945666 -0.1875 -0.01375 176 178 176
0.738394 -0.423066 -0.0667144 146 178 187
0.837421 -0.281321 -0.0869328 99 101 100
0.73756 0.155801 -0.111697 58 63 58
0.77927 -0.503102 0.0333647 58 65 66
0.881645 -0.405188 0.0927438 200 198 204
0.738305 -0.543819 -0.166675 118 153 160
0.960599 -0.32469 -0.105805 134 137 137
0.73846 -0.56257 -0.0466242 105 125 125
0.780679 0.417923 -0.107865 91 97 92
0.658079 -0.482823 -0.126302 55 58 68
0.760318 0.640467 -0.1072 211 210 215
0.779013 -0.442944 0.0127878 153 160 160
0.779896 -0.523307 0.0926437 69 71 72
0.557056 -0.301998 -0.14463 209 219 220
0.893421 -0.536623 0.0132361 137 145 142
0.622153 -0.410101 -0.0726181 119 201 235
0.778244 -0.561904 -0.348133 143 127 122
0.918821 -0.224432 -0.0481691 150 152 156
0.860884 -0.260539 -0.128848 104 95 79
0.939103 -0.222222 -0.048717 109 112 119
0.560375 -0.482085 -0.0869206 50 54 59
0.654848 -0.401545 -0.150275 125 110 112
0.842401 -0.385336 0.0279209 166 138 73
0.802311 -0.265086 -0.187286 78 80 76
0.685516 -0.446266 0.0304622 178 184 191
0.624203 0.415348 -0.108454 191 191 197
0.658926 -0.243038 -0.0681452 141 139 142
0.616653 -0.244531 -0.0522229 149 97 118
0.679124 -0.52071 -0.0075016 225 226 226
0.553679 -0.242987 -0.14346 221 220 229
0.78055 -0.163756 -0.307495 127 131 122
0.939712 -0.164756 -0.0306042 144 144 141
0.65322 -0.324507 -0.126421 248 248 248
0.798954 -0.540812 0.153999 121 118 111
0.984744 -0.182304 -0.00732157 54 62 62
0.679427 0.137556 -0.286924 196 205 209
0.718077 -0.582824 -0.164587 123 144 145
0.817713 -0.0433178 -0.0862313 121 109 91
0.55964 -0.423921 -0.167423 98 100 100
0.863906 -0.339329 -0.0677396 199 188 200
0.67856 -0.503126 -0.127844 97 103 109
0.963487 -0.0840553 -0.125817 99 99 95
0.975594 -0.142383 0.0335497 181 183 189
0.998266 -0.422589 0.0320994 89 73 76
0.598209 -0.364827 -0.0652077 115 173 194
0.558785 -0.302348 -0.127449 233 234 236
0.761383 -0.103449 -0.350455 141 147 141
0.855957 -0.105099 -0.10732 233 228 211
0.964514 -0.0446648 -0.0916404 177 185 166
0.73854 -0.56378 0.113112 139 139 135
0.938714 -0.480914 -0.147651 145 172 172
0.9188 -0.543335 -0.14819 72 90 93
0.739846 -0.42346 -0.14638 84 104 111
0.779889 -0.563333 -0.126801 59 80 82
0.89461 0.0343915 -0.0438789 121 123 116
0.933955 -0.101953 -0.0423563 166 167 163
0.697088 -0.422044 -0.0677829 126 172 184
0.647776 -0.469367 0.00781289 175 193 194
0.760893 -0.366361 -0.0738473 247 240 248
0.617197 -0.421984 -0.0888434 54 77 84
1.02124 -0.387381 0.12827 213 208 210
0.759341 -0.446908 0.0838955 198 204 210
0.75886 -0.543066 -0.16739 91 131 138
0.594093 -0.361959 -0.052411 122 191 215
0.904359 -0.369468 0.0351261 123 116 114
0.520275 -0.382598 -0.14728 75 75 85
0.783894 0.116873 -0.129792 69 67 66
0.77743 -0.0431195 -0.147161 72 72 73
0.740945 -0.544987 -0.310585 112 106 100
0.607711 0.453766 -0.0921212 202 202 211
0.87793 0.416637 -0.0254474 27 35 34
0.778449 -0.444279 0.0518447 145 162 163
0.953997 -0.163266 0.0749321 84 83 73
0.877619 -0.423746 -0.364909 92 98 95
1.08051 -0.382746 0.0108437 88 83 84
0.837051 0.397099 -0.12354 106 112 106
0.845052 0.396172 -0.0301477 75 83 76
0.85663 -0.222021 -0.147469 117 115 111
0.882886 0.436319 -0.126221 157 161 161
1.09891 -0.364416 0.0112732 106 98 101
0.961167 0.136787 0.152243 123 130 131
0.840636 0.0975101 -0.127204 124 129 112
0.564993 0.33787 -0.141554 197 200 196
0.520155 -0.483933 -0.0870597 35 39 52
0.639423 -0.523541 -0.0276923 215 214 217
0.817795 -0.502055 0.0733847 132 139 138
0.862446 0.138114 -0.0869556 52 54 45
0.785688 -0.405833 0.0958815 246 241 243
0.992727 -0.144074 0.0183249 149 153 153
0.980477 0.463509 -0.0867222 118 121 119
0.767809 -0.4121 0.0457789 109 129 120
0.875154 -0.0827632 -0.0254111 151 151 138
0.880211 -0.245548 -0.106097 88 105 98
0.917817 -0.084907 -0.141496 202 197 190
0.604751 0.376506 -0.11348 180 180 184
0.778918 0.617147 -0.0881368 215 214 221
0.899378 0.217073 -0.106811 166 175 154
0.938548 -0.204551 -0.0868055 105 107 102
0.854578 -0.324253 -0.0859756 184 175 184
0.721578 -0.447054 0.0279899 149 187 191
0.882459 -0.00290456 -0.0492913 104 107 96
0.624368 0.494761 -0.0884408 210 210 221
0.781452 0.55695 -0.127937 122 126 119
0.536152 -0.482115 -0.0690019 127 129 132
0.775795 0.516206 -0.144973 107 111 103
0.915856 -0.520887 0.113276 194 195 198
0.78494 -0.144867 -0.0914203 175 174 174
0.797585 0.476925 -0.147142 39 44 43
0.81905 0.574172 -0.121714 247 247 247
0.803023 0.576552 -0.0905545 116 120 115
0.87546 0.136065 -0.132335 179 185 163
0.702901 0.155707 -0.230186 99 104 102
0.936336 -0.261721 -0.0630229 163 158 155
0.857703 -0.598505 -0.0682555 181 182 180
0.642416 -0.485962 -0.0895713 96 124 134
0.863966 0.57786 -0.125516 142 144 144
0.860491 0.618792 -0.0883029 153 156 160
0.898953 -0.52224 -0.106984 85 102 104
0.627169 0.508491 -0.0800772 208 208 218
0.716771 -0.223064 -0.286037 183 192 190
0.781435 0.57672 -0.127903 122 126 120
0.670891 0.617705 -0.08715 206 204 214
1.15532 -0.32073 0.0538718 81 81 85
0.818306 -0.44662 -0.114896 19 22 23
0.867286 0.156469 0.0437592 118 115 107
0.604893 0.511725 -0.139199 251 251 252
0.798794 0.616354 -0.107457 116 120 114
0.876445 0.616549 -0.0666947 148 151 152
0.840326 0.0957924 -0.144423 134 136 121
0.598557 -0.403449 -0.109233 36 40 49
0.706226 -0.283537 -0.229012 151 154 153
0.923263 0.517092 -0.120865 208 208 211
0.659005 0.376294 -0.127387 165 170 165
0.598751 -0.363514 -0.126639 26 30 41
0.517585 -0.183521 -0.152688 190 188 187
0.719244 0.596649 -0.126877 225 224 231
0.923928 0.0762879 -0.141229 177 184 161
0.598452 -0.402421 -0.126487 27 30 39
0.838018 0.436358 -0.0878732 35 41 40
0.98336 -0.0453033 -0.0690952 163 173 150
0.7798 -0.484973 0.0727106 149 149 149
0.922602 0.376414 0.132177 215 226 235
0.577648 -0.221928 -0.147782 177 177 176
0.933058 -0.249252 -0.241528 101 100 94
1.05994 -0.442418 0.0127327 145 101 116
0.584847 -0.205331 -0.145454 183 181 183
0.901535 0.0966771 0.0511955 106 108 103
0.655809 0.39551 -0.138882 197 198 199
0.680254 0.298798 -0.12854 136 141 132
0.598857 -0.522262 -0.0476697 220 219 220
0.783035 0.256419 -0.129189 90 91 85
1.03833 -0.404206 0.0510557 88 74 78
0.557098 -0.264725 -0.143859 243 243 245
1.05927 -0.424936 0.0122364 131 98 109
0.93994 -0.201879 -0.0718804 87 89 91
0.700774 0.596078 -0.107006 216 215 223
1.03636 -0.30256 0.032468 73 78 80
0.83618 -0.0635363 -0.124656 92 95 90
0.695036 0.576371 -0.139033 241 242 243
0.895774 0.637951 -0.0483766 149 151 155
0.783717 -0.122236 -0.309426 101 106 102
0.938176 -0.304536 0.0963748 233 163 181
0.757516 -0.222072 -0.106497 194 187 196
1.11596 -0.383584 0.0133551 116 109 113
0.683394 0.298614 -0.145936 122 124 120
0.920464 -0.444178 0.0123861 172 167 148
0.523275 -0.345494 -0.0360064 117 140 157
0.599124 -0.32402 -0.146227 177 174 173
0.971214 -0.0774697 -0.114526 235 223 219
0.76452 0.571211 -0.108635 222 222 231
0.574002 0.458548 -0.137452 236 236 243
0.843019 -0.160695 -0.167578 58 61 59
0.739025 -0.462363 0.0527829 145 152 153
0.718469 -0.542094 -0.108562 68 119 130
0.818095 -0.444839 0.014954 156 149 136
0.979076 -0.286341 -0.0444465 167 162 168
0.621107 0.376896 -0.127903 177 180 179
0.761046 0.63686 -0.126608 192 192 194
0.638591 -0.261729 -0.144271 193 193 198
0.651506 -0.403829 -0.135839 32 36 53
0.518983 -0.441302 -0.145144 49 53 61
0.818232 0.617263 -0.12371 187 189 191
0.800338 -0.600161 -0.127512 104 129 129
0.87805 -0.614355 -0.130372 101 129 122
0.53763 -0.362077 -0.0500522 90 110 118
0.738365 -0.580157 0.152576 196 194 189
0.718163 -0.223284 -0.246372 139 144 142
0.973656 0.337048 0.13357 132 143 149
0.878839 -0.541994 -0.107945 28 36 38
0.761328 0.438906 -0.0943387 186 186 186
0.61919 -0.181651 -0.0915645 185 179 188
0.88328 -0.103166 0.0308798 116 116 107
0.680856 -0.102495 -0.144797 248 248 247
0.66021 0.372657 -0.138202 181 186 182
0.798994 0.0181799 -0.168604 39 45 44
0.9387 0.436416 0.112588 179 188 195
0.783237 -0.203536 -0.129347 77 67 60
0.845675 -0.223864 -0.031913 53 60 55
0.680733 0.281161 -0.140974 193 198 189
0.742205 -0.179789 -0.107948 226 223 226
0.77856 -0.523857 -0.0458819 79 114 121
0.661472 0.654445 -0.106755 187 186 196
0.821297 -0.299462 -0.12852 124 129 130
0.758745 -0.541406 0.0549835 125 126 126
0.839378 0.176066 -0.128555 170 178 156
0.656576 -0.543245 -0.268176 9 10 12
0.994102 -0.266965 0.0906825 168 136 147
0.919362 -0.143676 0.0725888 133 139 126
0.81881 -0.103233 -0.382516 149 154 147
1.01632 -0.143868 0.0526638 158 161 162
0.618507 -0.6008 -0.167882 192 193 194
0.700353 0.61665 -0.0680168 208 207 213
0.838387 -0.0635876 -0.086707 111 112 109
0.645199 0.535787 -0.106548 222 222 233
0.718839 -0.523024 0.0124399 183 191 194
1.15948 -0.323272 0.0928234 123 121 125
0.958575 -0.102872 0.0333976 183 183 183
0.51906 -0.486806 -0.168127 68 70 42
0.801945 -0.320964 -0.268294 100 105 102
0.640835 0.396699 -0.140582 215 215 216
0.883861 0.172981 -0.134781 177 184 162
0.998404 -0.317677 0.0511514 64 66 72
0.940688 -0.240134 -0.00662042 162 157 159
1.03988 -0.483241 -0.00758301 160 118 134
0.855404 -0.559226 0.0845481 171 180 191
0.969165 -0.521168 -0.237701 132 143 140
0.811816 0.406527 -0.372156 20 30 28
0.606229 0.436462 -0.107281 202 202 211
0.867471 -0.00566958 0.00523749 62 51 41
0.799493 -0.281949 -0.354438 116 122 116
0.599407 -0.583947 -0.166438 107 110 114
0.837641 0.298034 -0.394297 47 54 51
0.856328 -0.419457 -0.00647713 158 183 183
0.560097 -0.505121 -0.0684137 91 94 100
0.998875 -0.40112 0.019567 155 105 119
0.966936 0.617354 0.148176 194 205 216
0.579812 -0.483061 -0.14598 14 16 21
0.738521 0.174941 -0.109198 70 74 74
1.00174 -0.285197 -0.0264917 170 165 171
0.660588 0.556495 -0.0878829 213 213 224
0.797323 0.196368 -0.126259 77 75 73
0.679661 0.555995 -0.0739575 211 210 219
0.678442 -0.523839 0.092793 253 253 253
0.611362 -0.419093 -0.0719757 70 110 128
0.959578 -0.423052 0.0712017 93 81 80
0.677288 0.396612 -0.124755 185 186 187
0.63795 0.456228 -0.0943014 200 200 207
0.693757 -0.298186 -0.267804 118 124 123
0.856749 0.617086 -0.0464356 155 158 160
0.537774 -0.460444 -0.145376 52 55 67
0.677105 0.338453 -0.141298 189 193 188
0.80678 -0.145899 -0.251736 71 79 62
0.786826 -0.391104 0.0690029 186 188 187
0.91631 -0.146589 -0.138557 189 189 187
0.544236 -0.199904 -0.148574 190 190 198
0.959889 -0.321184 -0.068046 115 119 115
0.893328 -0.189853 -0.0615101 56 53 49
0.518717 -0.545113 -0.187185 16 18 19
0.932795 0.162279 -0.0784855 163 171 149
0.914211 -0.4805 -0.046769 136 142 123
0.90092 -0.240358 -0.0505226 125 124 124
0.841066 0.576493 0.0480609 81 88 90
0.971723 -0.122835 0.12472 136 134 123
0.878676 -0.242368 -0.126809 110 104 89
0.719297 0.316972 -0.325192 172 180 182
0.715532 0.616189 -0.0653299 209 208 213
0.712119 0.54098 -0.0876313 214 214 221
0.960537 -0.405161 0.0509823 127 115 106
0.757875 -0.563207 -0.306226 128 140 138
0.777045 0.096319 -0.146009 65 64 64
0.797579 -0.442799 0.0330211 147 178 177
0.599016 -0.503708 -0.0672856 183 184 185
0.758154 0.355814 -0.331655 164 171 171
0.920338 -0.142894 -0.128859 53 53 50
0.937377 0.494783 0.0100797 70 76 78
0.960017 -0.444524 0.0330431 162 148 125
0.68196 -0.443442 -0.0272325 213 228 234
0.597752 -0.139592 -0.143596 241 238 240
0.842611 -0.346244 0.0794382 203 194 199
0.739586 -0.301139 -0.126204 182 181 188
0.961481 0.0565971 0.111616 105 117 120
0.918583 0.57565 -0.0854947 161 163 169
0.792425 -0.180043 -0.266326 82 70 68
0.775178 0.335527 -0.205935 27 32 30
0.799563 -0.279583 -0.087952 94 98 94
0.680287 -0.540635 -0.00821736 191 206 207
0.662845 -0.283356 -0.0717816 202 148 173
0.748954 -0.412376 0.0164708 168 168 161
0.65885 -0.484526 -0.0671857 98 132 142
0.816655 -0.363291 0.233424 108 111 114
0.658481 -0.38269 -0.10764 29 34 42
0.98073 -0.284438 -0.109338 81 77 79
0.979616 -0.323554 -0.107518 109 111 110
0.776811 -0.143614 -0.145807 71 61 54
0.898192 -0.0980016 -0.0865123 137 136 128
0.839219 0.456971 -0.105706 31 36 35
0.940135 -0.0849998 0.012986 136 139 140
0.762256 0.278287 -0.127504 103 108 101
0.816745 -0.26472 -0.127678 120 113 108
0.768029 -0.226268 -0.0744019 189 180 192
0.902848 0.036944 -0.0690198 161 171 148
0.560534 -0.48708 -0.072372 142 143 145
0.739329 -0.463177 0.0127885 114 132 135
0.939323 -0.342844 -0.148086 115 122 121
0.796426 0.296906 -0.125364 68 74 65
1.02535 -0.244695 0.004798 188 192 199
0.778734 -0.40397 -0.0266799 145 206 223
0.794162 -0.428834 -0.159094 136 208 226
0.567883 -0.332337 -0.0713362 137 200 224
0.81942 0.635595 -0.124902 163 165 166
0.718463 0.437715 -0.289227 218 225 226
1.13141 -0.324429 0.000631132 159 153 155
0.681014 -0.426753 0.00617757 135 159 164
0.907244 -0.200635 0.0646272 109 110 102
0.494047 -0.310145 -0.0973947 128 213 245
0.916878 -0.499505 0.0535528 207 210 210
0.999652 -0.321823 0.034867 67 70 74
0.558578 -0.34359 -0.145814 79 83 84
0.680287 -0.505357 -0.10815 68 85 91
0.65949 0.616245 -0.107838 206 205 215
0.799887 -0.223787 -0.108445 78 69 58
0.837902 -0.504125 -0.346832 86 77 56
0.624775 0.494786 -0.107276 219 219 231
0.939162 0.496292 0.132043 221 230 236
0.94779 0.111516 -0.13993 149 154 138
0.857171 -0.145636 -0.107948 228 223 210
0.79372 0.135992 -0.26267 101 103 95
0.820641 -0.143014 -0.372668 138 142 134
0.881109 0.0351081 -0.105995 123 127 109
0.952962 -0.180549 -0.101686 124 125 105
0.717351 0.637569 -0.10802 209 208 212
1.00217 -0.303022 0.0355139 60 63 65
0.79757 -0.260168 -0.326775 85 87 82
0.798222 -0.406191 -0.0266128 142 206 225
0.939424 -0.402951 0.0149997 106 105 103
0.59869 -0.540159 -0.0468612 195 195 198
0.836454 0.156363 -0.106699 112 117 106
0.697927 0.53585 -0.107718 224 224 233
0.775975 -0.401802 0.0315007 161 148 123
0.960844 -0.524338 -0.0652113 180 181 172
0.840188 -0.524357 -0.128285 56 83 88
0.656293 -0.383343 -0.127356 39 44 52
0.840755 0.195 -0.131342 167 175 154
0.707103 -0.369493 -0.142113 247 251 251
0.662245 0.417401 -0.10964 190 189 194
0.69976 -0.560653 -0.0683835 72 96 99
0.798954 -0.424859 -0.0270314 140 202 220
0.859482 -0.524575 0.0721894 175 180 180
0.541799 -0.330209 -0.166163 72 72 72
0.692507 0.391935 -0.106202 181 181 184
0.599306 -0.404238 -0.147035 35 38 44
0.865401 0.582043 -0.0639817 210 210 220
0.627463 0.441018 -0.0956388 198 196 205
0.858123 0.538091 -0.126822 109 111 113
0.838152 0.496485 -0.0866523 125 127 130
0.772134 -0.144008 -0.223959 58 46 48
0.704376 0.344933 -0.139865 250 254 253
0.75803 -0.283694 -0.242784 106 108 103
0.978756 -0.466566 -0.108128 235 235 235
0.938441 -0.116145 -0.0384342 149 151 149
0.875001 -0.221783 -0.14589 137 121 105
0.936944 -0.0623792 -0.0457533 170 177 164
0.614498 0.337004 -0.124807 162 169 161
0.638661 -0.540576 -0.0457248 204 204 203
0.839677 -0.541618 0.0937341 149 154 156
0.799067 0.596344 -0.106941 123 127 122
0.856305 -0.220877 -0.105421 239 238 237
0.958884 -0.541 -0.165521 160 174 175
0.780807 -0.280535 -0.0856038 160 158 162
0.700345 0.55755 -0.0866913 214 214 223
0.704159 0.637909 -0.0530821 198 198 205
0.918627 -0.303605 -0.0871024 116 118 115
0.647796 0.60947 -0.126462 209 207 217
0.820949 -0.103887 -0.127695 121 123 124
0.700533 -0.38358 -0.126509 224 228 230
0.858922 -0.343327 0.0758995 198 182 183
0.822937 -0.0611166 -0.0527025 94 73 55
0.741198 -0.425465 0.0113338 146 157 155
0.978004 0.473037 -0.107326 185 186 187
0.845567 0.155657 -0.0080276 55 57 56
1.02 -0.301603 -0.00712695 124 125 122
0.601948 -0.349935 -0.0528055 144 209 231
0.778452 -0.204207 -0.108036 197 189 186
0.893889 -0.283469 0.0782817 206 98 116
0.837276 -0.061873 -0.146929 106 106 99
0.802157 -0.083889 -0.169298 57 58 53
0.786057 0.200081 -0.094815 69 76 70
0.814882 0.35207 -0.141805 41 46 42
0.7195 -0.445256 -0.0266121 120 181 196
0.858203 -0.203462 -0.144599 81 83 83
0.797073 -0.18287 -0.144575 127 117 122
0.699995 -0.543927 -0.107154 109 143 148
0.575612 -0.422564 -0.0865956 70 98 111
0.544921 -0.14475 -0.129291 210 205 208
0.745874 0.454175 -0.271717 182 192 191
0.721249 0.577396 -0.127352 234 234 240
0.658762 0.35679 -0.126736 161 169 160
0.899605 -0.10299 -0.0261991 138 138 132
0.601793 0.341248 -0.11623 159 166 159
0.797347 -0.482207 -0.30451 107 89 62
0.637864 0.377141 -0.113193 171 174 174
0.922199 -0.205201 -0.141632 226 225 217
0.745886 -0.164139 -0.0724476 67 72 83
0.662753 0.376127 -0.11416 162 166 162
0.678818 0.377575 -0.113555 161 166 161
0.68496 0.360593 -0.115446 158 165 158
0.702761 0.361988 -0.112817 160 166 160
0.679462 0.338202 -0.128016 165 172 159
0.537504 -0.461979 -0.127775 46 49 65
0.918138 -0.0824518 -0.126822 238 232 222
0.609742 0.364119 -0.1112 154 161 157
0.643837 -0.20256 -0.0756208 178 172 181
0.919989 -0.24349 -0.049382 120 119 120
0.57432 0.389267 -0.114041 190 189 196
0.640828 0.337752 -0.129164 165 170 159
0.599707 0.337878 -0.1287 163 171 162
0.558859 0.395903 -0.1265 201 200 204
0.576347 0.397716 -0.12966 200 198 203
0.637064 0.376916 -0.126207 176 179 178
0.874167 -0.465481 -0.181833 117 139 139
0.720642 -0.54749 0.0496903 231 230 230
0.835409 0.416509 -0.124104 107 112 107
0.879644 0.0771178 -0.0881962 126 132 114
0.938597 -0.306115 -0.0853079 112 115 112
0.835709 -0.163083 -0.0849788 92 91 79
0.860745 -0.426071 0.0352517 132 123 105
0.817484 0.0960073 -0.106141 80 81 78
0.892783 0.507039 -0.0412052 101 108 106
0.820607 -0.383495 0.0120319 169 133 38
0.656749 0.596751 -0.0677816 207 206 215
0.737991 -0.223301 -0.206754 129 129 120
0.838958 -0.482742 -0.147967 89 138 144
0.975117 0.516874 -0.124037 158 159 161
0.679788 -0.504843 0.0318917 241 241 242
0.861731 -0.0641728 -0.12652 191 188 180
0.618676 -0.245314 -0.109719 162 160 160
0.675416 -0.479418 0.0527906 245 245 245
0.946385 0.132856 -0.113965 177 182 161
0.934139 0.0758533 -0.113945 176 183 160
0.685615 0.176568 -0.174642 95 94 85
0.618113 0.378521 -0.140533 215 216 217
0.56473 -0.223136 -0.113482 193 187 191
0.841358 -0.145869 -0.144925 231 229 228
0.670952 -0.459792 -0.231226 76 77 81
0.738617 0.157025 -0.327225 168 176 174
0.822266 -0.24359 -0.0687731 55 53 46
0.697465 0.537876 -0.123166 243 244 248
0.839644 0.476857 -0.106222 146 147 150
0.86155 -0.525157 0.0911915 164 171 174
0.600717 -0.386566 -0.107136 50 53 62
0.912601 0.0178251 -0.143517 172 181 157
0.939452 -0.182957 -0.0675438 148 148 142
0.870053 0.387315 -0.119571 162 170 158
0.637674 -0.164892 -0.127316 236 235 235
0.818431 -0.203533 -0.12523 104 96 87
0.710446 0.583297 -0.138082 249 249 249
0.796835 0.376139 -0.126483 71 76 69
0.82711 -0.326678 0.0985593 237 232 237
0.637438 0.437987 -0.140456 240 240 242
0.917737 -0.423813 0.0757025 99 87 84
0.818638 -0.448569 -0.0804743 147 152 156
0.722951 -0.349802 -0.139807 248 248 248
0.579228 -0.52178 -0.0668191 112 113 119
0.937299 -0.163583 -0.146168 170 168 163
0.672148 0.636575 -0.0855113 193 192 201
0.617885 -0.522088 -0.224559 7 8 12
0.89279 -0.302826 -0.158871 91 89 83
0.689955 0.477644 -0.127704 214 214 224
0.999744 -0.268753 0.0129604 147 144 146
0.756252 -0.261517 -0.0847097 182 174 183
0.856901 0.636729 -0.0274538 132 137 135
0.837982 -0.20331 -0.106674 200 194 189
0.64097 0.4962 -0.0889056 209 209 220
0.700328 -0.506232 0.0117947 190 203 205
0.746841 0.477759 -0.173588 92 97 89
0.678885 -0.541321 0.0919168 253 253 253
0.657542 0.435483 -0.12488 201 200 205
0.980148 -0.258437 -0.0772264 250 249 251
0.736152 -0.129501 -0.139676 248 248 248
0.599311 -0.503786 -0.0890952 48 51 58
1.11877 -0.303909 0.0499924 126 124 126
0.777001 -0.0607974 -0.0749415 217 219 215
0.718157 0.197703 -0.145669 82 87 78
0.660055 0.617984 -0.0560962 195 195 205
0.519273 -0.163534 -0.226776 177 179 175
0.642353 0.537491 -0.0746098 210 210 221
0.636566 0.525711 -0.0762247 210 210 220
0.635865 0.517022 -0.0878073 212 212 223
0.617998 0.477165 -0.0907641 208 208 218
0.606479 0.43864 -0.0953706 200 199 207
0.977398 -0.144187 0.0669733 181 182 183
0.603856 0.416671 -0.107897 197 195 202
0.607107 0.397074 -0.110446 188 188 194
0.616392 0.319592 -0.127281 166 173 163
0.934236 0.17905 -0.0804136 162 169 147
0.732889 0.159115 -0.123893 69 74 70
0.671852 0.558252 -0.137709 249 250 251
0.660462 0.616474 -0.0677831 204 204 213
0.658623 0.537447 -0.0750403 210 210 221
0.644194 0.536268 -0.0873857 214 213 224
0.77772 -0.0452982 -0.323515 116 120 116
0.699772 0.596517 -0.12565 220 220 227
0.624206 0.43562 -0.106309 199 198 207
0.860872 0.0169346 -0.0867523 92 94 86
0.861155 -0.142343 -0.126596 166 164 146
0.647992 0.554123 -0.0894828 213 213 223
0.939131 0.497265 -0.121005 165 166 168
0.613676 0.456185 -0.107235 208 207 217
0.777209 -0.462197 0.0540036 151 167 173
0.656782 0.57776 -0.0888603 211 211 221
0.619464 0.47678 -0.10734 214 214 225
0.657977 0.596805 -0.0886582 208 207 217
0.956584 -0.0827719 0.055617 108 117 120
0.649825 -0.248209 -0.119553 190 186 193
0.855011 -0.388538 0.0132938 179 139 48
0.6354 0.515639 -0.107195 221 222 233
0.597274 0.417602 -0.126654 203 203 209
0.716961 -0.482808 -0.0465598 109 177 196
0.864042 0.136232 -0.125378 178 184 162
0.609091 0.449647 -0.115627 208 208 217
0.816238 -0.424325 -0.0458265 139 205 225
0.602929 0.434744 -0.126085 208 208 216
0.583206 0.359559 -0.134275 162 167 163
0.875538 0.51422 -0.106439 27 32 30
0.678572 0.416558 -0.137664 242 244 244
0.564875 0.410711 -0.129071 206 207 210
0.938728 -0.100699 -0.0886685 58 56 51
0.643035 0.536535 -0.128459 240 241 245
0.598917 0.48003 -0.132713 240 240 245
0.660527 0.595341 -0.125415 214 214 223
0.938004 -0.323418 -0.147139 132 136 139
0.625514 0.527683 -0.130871 242 243 246
0.637633 -0.403285 -0.146681 140 116 114
0.648938 0.552736 -0.128588 229 228 241
0.899335 -0.246002 -0.0901267 114 116 115
0.839137 0.557093 -0.087044 211 211 222
0.659507 0.636977 -0.125873 204 203 211
0.723885 -0.347903 -0.110509 248 248 248
0.946371 -0.0234461 -0.112289 167 177 152
0.81843 -0.560477 0.153398 120 119 116
0.599253 -0.567258 -0.0471488 216 218 217
0.92206 -0.0439709 0.0136378 136 141 141
0.661552 -0.262259 -0.0711373 185 142 161
1.00061 -0.302674 -0.0280362 131 131 130
0.899932 -0.341679 -0.147502 113 120 118
0.658123 0.313239 -0.140422 174 178 170
0.618561 -0.384503 -0.127595 62 63 71
0.759606 -0.560723 -0.26808 165 174 173
0.781592 0.431779 -0.0946139 92 98 92
0.699593 -0.502757 0.0912524 254 254 254
0.577089 -0.260968 -0.146068 199 200 197
0.799119 -0.122141 -0.167729 93 83 85
0.926085 0.517204 -0.0675649 196 194 201
0.717241 -0.439918 -0.127523 38 42 57
0.738515 0.335146 -0.115027 163 171 160
0.900196 -0.543039 -0.108152 65 75 75
1.11699 -0.322201 0.0334086 81 83 85
0.696942 -0.383312 -0.0878391 170 182 193
0.500068 -0.285553 -0.0926008 187 222 241
0.599918 -0.542191 -0.205517 2 4 5
0.778823 -0.28294 -0.387763 122 127 124
0.916641 0.216501 -0.101385 147 155 135
0.866052 0.57645 0.133432 171 180 185
0.898565 -0.403352 0.0541663 165 162 158
0.685538 0.457551 -0.247297 226 232 237
0.903322 -0.0425932 -0.0733633 87 90 83
0.797756 0.216497 -0.267318 111 118 108
0.96573 -0.226841 -0.0292617 135 132 119
0.680821 0.556458 -0.12685 234 234 241
0.839596 -0.384615 0.0731665 194 193 197
0.899102 0.254511 -0.139267 120 123 116
0.617799 -0.521697 0.0135648 252 252 252
0.699336 -0.597293 -0.00738708 203 204 197
0.658052 -0.44294 -0.146564 92 77 85
0.755609 0.0560174 -0.306537 143 148 142
1.01919 -0.223814 0.0902096 133 131 117
0.799005 0.477799 -0.387285 187 194 196
0.778327 -0.584287 0.0321701 211 211 208
0.882086 0.0986966 -0.142211 179 185 165
1.1194 -0.363278 0.029813 75 73 79
0.819131 -0.282289 -0.12773 112 110 108
0.833651 0.576354 -0.0637624 128 133 131
0.859065 -0.403815 0.0325742 168 143 77
0.780378 -0.485935 0.051813 131 144 146
0.736363 0.176728 -0.123124 66 72 67
0.921736 -0.200574 -0.0069499 169 171 171
0.938108 0.517082 -0.070179 162 162 166
0.90031 -0.0259866 -0.0692231 42 45 43
0.900797 -0.12447 -0.108235 233 232 226
0.6443 -0.143633 -0.144354 237 237 237
0.798811 -0.461164 0.0149686 160 174 176
0.960944 -0.222042 -0.0474157 80 81 78
0.763402 0.555851 -0.129129 165 168 165
0.852879 -0.340165 0.225859 180 180 179
0.884394 -0.459834 -0.438078 78 78 74
0.794396 0.49568 -0.123958 103 107 101
0.730666 0.599686 -0.0723117 211 211 216
0.918664 -0.0756638 -0.0672536 70 70 66
0.798423 0.236435 -0.146821 60 63 57
0.657794 -0.520973 -0.286401 3 4 7
0.97283 -0.243976 0.128486 112 120 106
0.958515 -0.542883 -0.110336 169 178 181
0.978719 -0.421562 0.0336052 97 75 69
0.698362 -0.598211 0.0532321 196 196 186
0.89752 0.0366972 -0.109903 115 120 104
0.716258 0.354489 -0.112199 161 169 160
0.763672 -0.224992 -0.0879438 192 183 193
0.741586 -0.345847 -0.0901117 248 246 248
0.820824 -0.00480252 -0.146458 49 58 61
0.699331 -0.584446 0.0326692 222 224 221
0.738631 0.535108 -0.122247 232 232 241
0.700106 0.597307 -0.069373 210 209 216
0.699124 0.537283 -0.0734236 209 208 218
0.799137 0.576881 -0.106798 121 125 120
0.69635 0.519446 -0.0754574 208 208 218
0.69206 0.501039 -0.090457 209 209 217
0.679583 0.496447 -0.0892804 208 208 215
0.680777 0.477926 -0.0913244 204 204 210
0.67561 0.458993 -0.0929205 199 198 204
1.09963 -0.344309 0.0124835 119 112 114
0.819161 -0.0248939 -0.146909 77 81 80
0.660837 0.457788 -0.0945223 200 199 205
0.66106 0.439226 -0.0949485 195 193 201
0.662466 0.422932 -0.0960401 190 188 195
0.678668 0.41501 -0.109304 188 188 190
0.697904 0.377441 -0.110198 155 161 158
0.725781 0.344371 -0.113261 162 169 163
0.765176 0.318895 -0.109975 96 99 94
0.758759 0.316947 -0.126683 117 121 115
0.762473 0.297271 -0.128728 111 116 109
0.740498 0.293344 -0.128439 165 171 158
0.716563 0.295838 -0.128973 167 173 159
0.71854 0.638314 -0.0529656 205 204 208
0.713247 0.622168 -0.0550609 207 206 212
0.715486 0.577203 -0.0705535 211 211 219
0.696618 0.517678 -0.0880215 211 211 219
0.779789 -0.403853 0.109087 210 207 217
0.660285 0.436829 -0.108071 197 196 201
0.540398 -0.283372 -0.0884506 178 180 184
0.742741 0.338722 -0.126753 135 140 133
0.757332 0.334836 -0.126294 90 92 86
0.70217 0.297671 -0.13156 170 175 162
0.716726 0.636004 -0.0668774 207 206 209
0.70028 0.536361 -0.0873178 213 213 221
0.657095 0.456736 -0.107612 203 203 208
0.724704 0.346411 -0.119629 165 172 166
0.99099 0.559236 0.140648 213 222 232
0.739116 -0.36049 -0.0846605 248 248 248
0.587203 -0.369801 -0.0491124 85 155 182
0.680302 0.156915 -0.287153 179 188 191
0.68163 0.476729 -0.107015 207 207 214
0.676344 0.457087 -0.107589 202 201 207
0.693077 0.373081 -0.124223 161 168 162
0.736887 0.356454 -0.127508 106 110 105
0.941978 -0.39949 -0.188438 103 112 111
0.698779 0.577107 -0.0875475 214 213 222
0.68015 0.495117 -0.10803 214 214 222
0.579837 -0.404331 -0.16729 30 31 32
0.681411 0.377233 -0.126073 164 169 164
0.855895 -0.0839761 -0.0467993 127 123 107
0.703423 0.453541 -0.11677 204 205 209
0.698077 0.596395 -0.0875729 212 211 219
0.800395 -0.521211 0.0529431 96 111 110
0.695938 0.516018 -0.106804 219 219 228
0.69142 0.500449 -0.106687 215 215 223
0.658926 0.416259 -0.126122 193 193 197
0.659619 0.537063 -0.304335 159 166 166
0.676044 0.41672 -0.126989 193 193 196
0.696185 0.336108 -0.130159 166 172 159
0.616388 0.319135 -0.140414 186 191 184
0.678554 0.355701 -0.125759 161 169 159
0.669383 -0.478678 0.0634103 252 252 251
0.699354 0.636361 -0.0878212 206 204 210
0.700976 0.556374 -0.106901 224 224 234
0.675917 0.43749 -0.126287 200 200 204
0.843584 -0.00233873 -0.147885 149 156 136
0.930122 -0.613942 -0.10385 131 132 125
0.679659 0.477779 -0.126075 215 215 222
0.859272 -0.57493 -0.125665 68 79 78
0.892172 -0.258707 -0.158626 122 124 121
0.680293 0.495851 -0.125398 224 224 232
0.700861 0.616525 -0.107143 211 210 217
0.693903 0.517248 -0.123223 236 236 242
0.86395 0.380688 -0.110436 162 168 157
0.693856 0.498144 -0.123524 223 223 232
0.698073 0.636925 -0.107044 207 205 212
0.620667 0.437374 -0.127747 209 209 215
0.697616 0.656956 -0.107725 197 196 201
0.676622 0.537083 -0.124462 241 241 246
0.66044 0.516161 -0.1247 239 240 244
0.75323 0.556805 -0.184002 102 106 98
0.657795 0.476318 -0.126303 218 218 225
0.880986 -0.102209 -0.0680147 140 136 121
0.699619 0.577993 -0.125955 228 228 235
0.776047 -0.461923 -0.0072884 136 198 213
0.699996 0.616748 -0.125773 216 215 221
0.719896 -0.526447 -0.107559 62 111 123
0.55899 -0.541328 -0.0873534 156 157 157
0.699943 0.636527 -0.126229 213 212 216
0.697106 0.435427 -0.126917 187 186 187
0.837799 -0.403078 0.0700293 172 173 174
0.69854 0.655653 -0.125274 205 205 210
0.684947 0.575517 -0.128212 228 229 235
0.682761 0.597597 -0.128043 221 220 228
0.683225 0.636946 -0.127188 209 208 214
0.756684 0.15519 -0.226859 85 89 80
0.680941 0.6579 -0.127363 196 196 202
0.821105 -0.0815399 -0.341657 126 134 126
0.622292 0.396792 -0.127414 187 188 191
0.800195 0.0764924 -0.147681 85 88 81
0.939892 0.535867 -0.106599 169 169 174
0.717871 0.114539 -0.167921 102 105 99
0.810951 0.417303 -0.353391 202 212 212
0.596638 -0.282291 -0.249109 168 168 162
0.660648 -0.503996 -0.0280554 179 180 183
0.741823 -0.598233 -0.22374 122 137 137
0.717581 -0.500702 -0.0474453 61 102 111
0.836959 -0.419968 0.0128671 177 151 81
0.747214 -0.215969 -0.115926 198 191 200
0.860248 -0.16244 -0.126789 184 180 171
0.776539 -0.461901 0.0140439 132 127 123
0.992627 -0.123225 0.0543304 180 183 189
0.545736 -0.159235 -0.13548 192 190 197
0.696984 -0.142861 -0.140238 233 232 232
0.839191 -0.469502 -0.147415 115 157 160
0.800559 0.256259 -0.369669 160 168 167
0.816662 -0.431503 -0.0629357 142 198 213
0.697382 0.156442 -0.286368 182 192 192
0.817039 0.455327 -0.126522 68 72 72
0.659389 -0.60086 0.0520028 215 215 208
0.879672 0.346497 -0.111758 166 170 153
0.681833 -0.61338 -0.136869 164 170 170
0.822559 0.438353 -0.107953 61 66 65
0.77568 -0.426685 -0.0852127 82 104 104
0.663586 -0.505716 -0.00742424 235 237 238
0.840015 -0.221581 -0.109842 238 237 237
0.779274 -0.598115 0.174417 127 129 121
0.836186 -0.462739 0.133228 189 189 188
0.93775 -0.0232843 0.0150334 157 163 166
0.705568 0.219468 -0.1515 81 83 79
0.84028 0.622387 -0.109162 125 129 128
0.86368 0.35857 -0.112308 139 143 134
0.798331 0.0958802 -0.165654 66 59 58
0.780999 0.196385 -0.106596 82 84 80
0.796572 0.356629 -0.125745 70 74 67
1.11916 -0.287326 0.0320463 144 140 139
0.91755 0.176832 0.0336629 118 130 134
0.537566 -0.382984 -0.0863419 118 193 219
0.679134 -0.423542 -0.00707673 131 147 152
0.814709 0.578096 -0.105303 201 202 207
0.76422 0.416841 -0.15013 82 88 80
0.896617 -0.483553 -0.345541 110 118 116
0.639762 -0.383665 -0.0911152 131 134 141
1.01211 -0.283068 -0.0203767 173 169 175
0.681849 -0.564899 -0.0488258 118 139 143
0.998764 -0.301987 -0.00875714 112 114 113
0.638658 -0.543105 -0.108904 139 143 144
0.764714 0.476951 -0.15104 95 99 91
0.802784 0.635497 -0.089666 123 127 121
0.855759 0.0389657 -0.141901 174 182 157
0.759657 0.296447 -0.167561 70 74 65
0.795734 0.617085 -0.123627 131 134 130
0.817145 0.537586 -0.387311 171 177 175
1.13257 -0.345666 -0.00286732 156 151 154
0.716455 0.336901 -0.285821 198 208 207
0.956845 -0.594916 -0.204441 214 224 225
0.580854 -0.483499 -0.109531 13 17 24
0.939089 -0.363155 -0.145563 115 122 121
0.540119 -0.305066 -0.146965 150 165 171
0.856126 -0.323824 -0.0687188 178 170 180
0.660996 0.515395 -0.0872363 211 210 221
0.660896 0.496902 -0.090246 209 209 217
0.856041 -0.0653515 -0.146868 129 128 123
0.634807 0.396013 -0.111443 185 185 187
0.660966 0.358375 -0.114728 157 164 157
0.662382 0.318691 -0.128741 155 161 149
0.677804 0.315873 -0.128911 155 162 149
0.694494 0.317281 -0.129157 167 174 158
0.676945 0.6362 -0.0685021 193 193 202
0.679508 0.576447 -0.0714139 210 210 218
0.665036 0.535543 -0.0883346 213 213 224
0.639939 0.45636 -0.107907 205 205 211
0.526767 -0.310849 -0.153221 119 191 214
0.683628 0.556136 -0.088076 214 214 222
0.643776 0.476212 -0.10676 210 210 220
0.708471 -0.371866 -0.123614 248 248 248
0.884719 -0.368463 -0.432768 83 87 80
0.640788 0.437101 -0.107937 199 198 201
0.527724 -0.327478 -0.0405438 132 130 133
0.622869 0.415666 -0.128507 196 196 201
0.619996 0.339608 -0.140214 186 189 184
0.640992 0.436984 -0.128925 204 204 207
0.640041 0.45617 -0.128115 211 212 218
0.581511 0.356785 -0.140228 195 200 198
0.641448 0.49535 -0.127899 236 237 242
0.921843 -0.407018 0.111399 149 139 142
0.641501 0.475056 -0.127336 220 220 228
0.79822 -0.38538 -0.0050653 158 128 52
0.562615 0.397158 -0.140384 218 218 221
0.687411 0.615946 -0.109717 209 209 217
0.962116 0.237115 0.130137 158 170 174
0.579661 0.416979 -0.140258 223 223 226
0.996306 0.43626 0.172027 244 245 245
1.01805 -0.481767 0.00882184 173 151 159
0.851914 0.297351 -0.0629639 50 53 51
0.762809 -0.504376 -0.164482 101 148 156
0.496104 -0.184157 -0.172589 196 193 182
0.868766 0.144998 -0.142424 183 186 165
0.852927 -0.0417587 -0.140307 189 191 173
0.765617 0.0757797 -0.152282 63 58 56
0.977943 -0.306208 -0.0850519 143 141 143
1.03807 -0.361826 0.0516955 45 46 52
0.81843 -0.544523 -0.167799 40 64 68
1.16113 -0.288515 0.0344958 155 155 154
1.15469 -0.263646 0.0534035 173 176 175
0.999771 -0.423784 0.0706275 95 75 72
0.933866 -0.00398077 -0.122123 167 178 151
0.919729 -0.563285 -0.167558 69 93 97
0.896054 0.633373 -0.121033 237 238 243
0.773437 0.313942 -0.1048 98 104 100
0.678024 -0.425986 -0.125641 57 51 62
0.937125 -0.163304 -0.0879654 217 216 209
0.682941 -0.386543 -0.0686341 171 204 212
0.579264 -0.58386 -0.127572 173 175 180
0.705014 0.419039 -0.133297 131 134 131
0.725121 -0.519083 -0.209006 120 121 120
0.675546 0.518014 -0.105691 219 219 228
0.820189 0.196687 -0.144473 168 175 157
0.654853 -0.111064 -0.146137 237 237 236
0.884011 -0.123744 0.0522417 151 152 150
0.658798 0.454021 -0.1384 219 220 223
0.944973 0.445693 -0.091379 179 178 180
0.90055 0.597472 -0.0691945 178 179 184
0.858176 -0.345234 -0.266048 106 114 111
0.819138 -0.486002 -0.0674769 96 131 141
0.818792 -0.445959 -0.325567 27 27 26
0.918283 -0.222288 -0.106677 151 146 137
0.680699 0.53849 -0.0756478 210 209 219
0.699745 -0.522308 0.0522719 239 239 239
0.918796 0.580495 -0.123182 192 194 199
0.676681 0.517388 -0.0887839 211 211 219
0.662125 0.3991 -0.112549 182 184 186
0.81247 0.434706 -0.144116 16 21 20
0.659805 0.476382 -0.107922 209 209 216
0.977195 -0.163971 0.05412 181 183 187
0.80345 -0.122959 -0.350811 133 139 131
0.636573 0.331577 -0.138618 184 188 180
0.73682 -0.224198 -0.349682 159 167 165
0.684685 0.557051 -0.10743 221 221 230
0.638189 0.356334 -0.139643 178 183 177
0.938992 -0.283498 -0.0486603 114 116 113
0.687205 0.574607 -0.106819 217 217 225
0.658525 0.496751 -0.126334 230 230 237
0.87793 0.597621 -0.123019 209 210 210
0.618598 0.396938 -0.138988 203 204 205
0.619943 0.556437 -0.284337 163 169 170
0.687871 0.597619 -0.108492 213 213 220
0.620371 0.434521 -0.138822 222 223 226
0.883497 -0.1375 0.0662998 22 17 13
0.937586 0.57557 -0.123706 204 205 210
0.580792 0.475092 -0.135943 243 245 247
0.577387 0.461527 -0.136893 237 237 245
0.604166 0.511433 -0.13506 245 246 247
0.982154 -0.547881 -0.112244 138 144 147
0.920052 -0.523329 -0.0878466 139 153 156
0.579771 -0.404532 -0.146559 42 45 52
0.691752 0.316503 -0.138217 169 174 164
0.897971 -0.182475 -0.0478005 126 119 111
0.817389 0.61742 -0.106022 180 181 184
0.64026 -0.506713 0.05077 253 253 253
0.860434 0.636915 -0.107304 176 176 183
0.890579 0.149975 -0.141272 179 186 164
0.817504 -0.281971 -0.165706 82 81 74
0.937755 -0.125928 -0.105936 64 64 58
0.699128 -0.522575 -0.00676981 195 198 201
0.659353 -0.523737 0.0521527 253 253 253
0.661427 -0.486148 -0.0266574 173 178 183
0.699447 -0.503942 0.0534535 207 209 210
1.00058 -0.125357 0.0313968 179 181 183
0.959685 -0.320404 0.0932719 165 157 158
0.779839 -0.542937 0.0317766 77 98 99
0.795487 0.518049 -0.206723 37 42 40
1.00146 -0.523617 -0.0678144 182 191 199
0.899839 0.0747442 -0.104294 135 143 124
0.79974 -0.543344 -0.127853 41 61 66
0.820073 0.636477 -0.0489584 167 168 170
0.823922 0.59645 -0.0525019 138 141 140
0.820939 0.576686 -0.0684046 135 139 137
0.820883 0.556699 -0.068777 130 134 131
0.836587 0.516182 -0.0649763 132 137 137
0.836612 0.475293 -0.0878395 108 110 111
0.838339 0.45675 -0.0872908 46 51 51
0.925804 0.316299 0.15094 149 158 165
0.858841 0.454578 -0.0884237 108 113 114
0.865535 0.440453 -0.0854442 78 83 82
0.81641 -0.122923 -0.106277 153 147 134
0.857441 0.253636 -0.129735 121 120 113
0.894233 0.433435 -0.094878 179 180 183
0.820226 0.636013 -0.0684309 144 146 145
0.899067 0.0766109 0.0330941 98 104 101
0.820136 0.615987 -0.0689106 140 143 142
0.841247 0.535399 -0.0872292 186 187 194
0.914614 -0.180773 -0.142012 199 198 191
0.87739 0.438544 -0.107739 159 162 164
0.679393 -0.58397 0.0527185 226 228 225
0.740799 0.254301 -0.147007 121 125 115
0.498143 -0.311601 -0.0939105 114 200 236
0.760556 -0.2052 -0.126327 217 210 213
1.03335 -0.305954 0.104591 171 116 129
0.859385 0.45721 -0.10732 141 144 147
0.995685 -0.36246 -0.0485183 90 93 90
0.815658 0.576999 -0.0854899 134 137 135
0.832793 0.574484 -0.0890697 215 215 227
0.918874 0.396821 -0.12017 164 171 165
0.899104 0.318412 -0.13109 183 187 176
0.74004 0.297089 -0.139127 189 193 185
0.817604 0.596373 -0.0858754 140 143 142
0.857563 0.474585 -0.107811 126 132 131
0.798036 -0.262865 -0.126628 71 62 49
0.862695 0.441196 -0.104209 39 43 41
0.917835 0.356939 -0.124286 137 142 134
0.901124 0.35579 -0.125076 103 107 104
0.879813 0.344031 -0.129227 148 153 147
0.856705 0.339572 -0.126032 106 111 106
0.817913 0.636958 -0.0865592 139 141 140
0.817926 0.616805 -0.0868797 143 146 145
0.890573 0.435708 -0.12438 177 179 181
0.897116 0.396039 -0.125489 132 139 137
0.777157 -0.163644 -0.146339 73 64 58
0.899975 0.376221 -0.124808 144 149 141
0.878374 0.374724 -0.124653 173 178 168
0.818145 0.35584 -0.12699 41 43 40
0.732835 -0.616657 -0.0213047 203 201 195
0.717638 -0.562086 0.0535778 238 238 237
0.841264 0.55698 -0.107028 220 220 230
1.03931 -0.303839 0.0121901 112 112 113
0.86017 0.46004 -0.124216 147 149 153
0.940689 0.356049 0.130638 222 228 230
0.876157 0.453446 -0.128526 155 159 159
0.891676 0.412182 -0.129306 141 148 146
0.574428 -0.341126 -0.128222 22 28 33
0.699435 0.355889 -0.138888 217 220 217
0.800981 0.19636 -0.109409 83 82 81
0.833217 0.573478 -0.106463 226 227 238
0.83979 0.476883 -0.12604 133 136 138
0.859582 0.477083 -0.128281 116 120 120
0.819384 0.416749 -0.127222 31 37 35
0.719705 0.456985 -0.36755 181 190 190
0.816381 0.597613 -0.104457 184 185 190
0.840599 0.516963 -0.12787 97 99 99
0.818791 0.436173 -0.126686 39 44 43
0.775392 0.436882 -0.145072 94 98 91
0.818677 0.636848 -0.106475 162 163 165
0.841464 0.534821 -0.128087 119 122 122
0.857758 0.51691 -0.125381 121 125 127
0.835482 0.457987 -0.126034 35 40 40
0.763294 0.43691 -0.127146 123 127 125
0.89801 0.657128 -0.00689518 97 103 101
0.859462 0.553631 -0.127338 93 96 96
0.979013 -0.383012 -0.166949 103 110 108
0.818311 0.476727 -0.126501 102 105 104
0.720745 0.617898 -0.107288 213 211 218
0.820897 0.559059 -0.120176 239 240 244
0.678914 0.451409 -0.138229 232 232 235
0.759312 0.497467 -0.280145 181 189 190
0.813001 0.600121 -0.122403 189 191 191
0.794597 0.576579 -0.122351 139 142 137
0.793988 0.55626 -0.123489 127 130 125
0.794966 0.53637 -0.12489 128 131 127
0.76445 0.576684 -0.129454 163 166 162
0.739478 0.556363 -0.126331 239 239 245
0.543094 -0.487469 -0.188587 43 47 23
1.05511 -0.37846 0.0474836 30 31 36
0.956636 -0.164222 -0.048478 225 222 214
0.833724 0.634304 -0.125863 157 161 162
0.716576 0.556603 -0.127312 244 244 248
0.661157 -0.161326 -0.131336 248 248 248
0.780837 0.615752 -0.127828 124 127 122
0.937322 0.235994 -0.103277 139 145 130
0.878421 -0.502522 -0.0475666 127 162 171
0.764242 -0.0637656 -0.150596 126 127 126
0.718274 0.260486 -0.107377 91 95 90
1.07418 -0.325441 -0.00791645 155 153 156
0.738743 -0.583038 0.052207 220 222 219
0.799863 -0.44389 -0.366324 99 97 94
0.957377 -0.251198 -0.208694 35 30 22
0.941907 -0.488274 -0.0453396 164 174 166
0.73898 -0.524009 -0.146825 121 155 161
0.598157 -0.483118 -0.0873635 55 60 65
0.978089 -0.364339 0.0534635 96 82 77
0.639186 -0.504236 0.0322592 253 253 253
0.657784 -0.540485 -0.00554142 221 220 223
0.718937 -0.403707 -0.0272823 153 215 235
0.568713 -0.11073 -0.135619 248 248 248
0.796465 0.31594 -0.125395 73 78 69
0.741178 -0.284877 -0.107839 175 172 180
0.837762 -0.462711 -0.0639832 111 149 154
0.839326 -0.322525 -0.126969 181 179 188
0.717696 -0.598249 0.15203 213 211 205
0.939693 -0.287382 -0.10594 146 146 148
0.636311 -0.282052 -0.126438 237 233 242
0.579993 -0.522497 -0.10757 56 60 65
0.903323 0.557722 -0.120827 195 196 203
0.897868 0.459139 -0.0260535 14 21 21
0.956626 0.195725 0.0945207 181 191 194
0.897824 -0.483638 -0.169321 75 123 128
0.819331 -0.361959 0.112413 117 118 118
0.938703 -0.524797 -0.0880433 118 129 130
0.653224 -0.343543 -0.127012 248 248 248
0.88358 0.6006 -0.110854 163 166 167
0.738711 -0.165587 -0.0858659 84 89 100
0.935691 0.176741 -0.128125 176 183 162
0.578249 -0.423195 -0.0686154 47 68 80
0.719953 -0.46269 0.0125475 133 161 167
0.922559 0.516588 0.112587 248 249 251
0.658941 0.136672 -0.248405 184 195 200
0.79869 -0.280787 -0.145598 92 90 83
0.93108 0.0475866 -0.138529 126 131 112
0.695327 -0.421624 0.013847 151 191 201
0.879394 0.575454 -0.0486866 107 111 113
0.855049 0.636837 -0.046609 155 158 159
0.854605 0.597372 -0.0454561 155 159 160
0.855463 0.576292 -0.0440814 140 146 147
0.860735 -0.421917 0.0117719 171 149 86
0.89641 0.555692 -0.0508344 109 112 114
0.895547 0.536731 -0.0492065 69 73 74
1.0149 -0.303095 0.0923717 84 86 85
0.900058 0.541963 -0.0626497 118 120 125
0.954571 0.477643 -0.0736996 137 138 140
0.93358 0.214473 -0.12863 174 181 161
0.738246 0.29685 -0.326942 165 172 173
0.940154 -0.284132 -0.0656097 143 142 140
0.738941 0.216081 -0.126347 90 93 90
0.939979 -0.343624 0.115353 117 98 101
0.926256 -0.0425088 -0.0519246 117 125 110
0.65824 0.301868 -0.142512 198 199 197
0.778198 -0.578651 0.11508 127 116 101
0.858433 0.656205 -0.0278326 132 136 134
0.898551 0.55557 -0.066974 154 155 161
0.917911 0.537696 -0.0680569 200 199 207
0.977168 0.473821 -0.0894191 184 185 187
0.73948 -0.503603 0.113451 45 47 49
0.877378 0.575458 -0.0672462 155 157 163
0.878691 0.563063 -0.0652358 106 108 111
0.956979 0.496593 -0.0876556 142 143 146
0.938737 -0.326096 -0.127456 123 128 128
0.837226 -0.345983 -0.307471 90 95 93
0.940182 0.516796 -0.0877423 130 133 138
0.942019 0.498681 -0.0898389 86 89 90
0.739609 -0.597273 0.134879 179 176 171
0.858417 0.617885 -0.066556 168 171 175
0.923451 0.537809 -0.0881449 168 169 177
0.939781 0.536065 -0.0878351 160 161 165
0.758445 0.237477 -0.306868 156 163 159
0.719177 -0.48344 0.0732539 242 237 237
0.559784 -0.503306 -0.146066 33 35 38
0.738911 -0.135763 -0.144985 248 248 247
0.898797 0.559743 -0.0866635 130 133 138
0.920353 0.557316 -0.0887366 161 164 169
0.858862 -0.505715 -0.207526 70 124 132
0.58009 -0.162765 -0.144233 206 201 208
0.878737 0.577968 -0.0866856 203 204 215
0.938707 0.49774 -0.107349 147 148 151
0.958737 0.495064 -0.103666 170 170 173
0.769147 0.0265141 -0.180183 104 104 100
0.866912 0.596165 -0.0882494 176 176 186
0.904179 0.578676 -0.0869649 165 167 172
0.938571 0.516594 -0.106241 146 148 152
0.920267 -0.163633 -0.167039 112 108 94
0.817254 0.337023 -0.142821 54 56 54
0.580312 -0.443473 -0.127901 9 12 18
0.658168 -0.423994 -0.147714 131 105 110
0.858668 0.639304 -0.0872914 180 181 187
0.898876 0.576499 -0.106026 140 143 147
0.519559 -0.12212 -0.168213 196 194 186
0.900609 0.5602 -0.107502 189 190 197
0.959923 0.479184 -0.121126 139 141 144
0.719568 -0.388956 -0.00815967 157 183 170
0.562998 -0.24381 -0.108065 233 223 235
1.05459 -0.360359 0.108192 180 175 172
0.881821 0.576457 -0.108845 215 215 224
0.962302 0.518333 -0.108386 200 199 203
0.836514 -0.0424041 -0.0855906 131 133 125
0.958779 0.536451 -0.124229 208 208 216
0.998497 -0.284733 0.0922701 124 119 118
0.974644 0.497129 -0.122374 195 195 199
0.962116 -0.362224 -0.149049 107 113 112
0.738034 -0.50346 -0.00855889 190 194 187
0.864853 0.581202 -0.110794 104 107 107
0.919891 0.553584 -0.123018 191 192 200
0.807948 0.574405 -0.0687989 167 168 170
0.856095 0.655174 -0.105892 164 166 170
0.898995 0.577702 -0.124568 148 150 152
0.914261 -0.267257 0.0163984 126 128 118
0.944824 0.560062 -0.123227 218 218 226
0.676529 0.436926 -0.139744 247 247 247
0.918712 0.235751 -0.103683 165 174 153
0.833514 0.576104 -0.12031 246 246 246
0.879029 0.573097 -0.125976 178 180 182
0.639312 -0.5028 -0.0272805 212 212 211
0.919657 -0.402115 0.0532827 155 151 142
0.717012 0.535246 -0.128089 243 243 247
0.859952 0.639887 -0.123886 191 191 197
0.857721 0.615867 -0.125716 124 127 125
0.750845 -0.375043 0.033766 150 147 141
0.8785 -0.544264 -0.309488 94 135 137
0.816523 0.37756 -0.126014 38 43 39
1.03989 -0.404146 0.0328729 132 116 123
0.919957 0.0188738 -0.128999 169 180 153
0.83829 -0.123293 -0.0662332 92 92 82
0.63361 -0.405791 -0.0738409 103 188 221
0.636603 -0.141345 -0.0887347 139 140 147
0.557426 -0.614281 -0.150229 103 102 116
0.979751 -0.484201 -0.0672755 210 210 211
0.738297 0.250903 -0.127047 93 97 91
0.518418 -0.126425 -0.148011 224 222 225
0.949582 0.448336 0.0760857 126 137 142
