ply
format ascii 1.0
comment Created by Open3D
element vertex 157
property double x
property double y
property double z
property uchar red
property uchar green
property uchar blue
end_header
0.999325 0.712796 -0.30594 73 78 77
1.01388 0.735287 -0.261476 55 56 54
1.01799 0.718925 -0.267726 60 64 63
0.938289 0.758949 -0.265248 68 71 64
0.961643 0.73323 -0.305376 71 77 74
0.939291 0.764072 -0.343975 50 53 44
0.979664 0.777429 -0.328022 69 72 64
0.995079 0.71786 -0.228435 81 89 88
0.940852 0.720959 -0.307929 44 53 53
0.938793 0.70231 -0.348598 41 47 46
0.996084 0.730374 -0.283706 58 61 59
0.938334 0.714497 -0.327565 44 51 51
0.996507 0.768915 -0.327949 96 102 100
1.01764 0.719312 -0.327983 59 62 54
0.994375 0.733361 -0.228884 51 55 52
1.01452 0.714763 -0.34372 61 64 56
1.01207 0.729566 -0.325059 59 60 51
0.979438 0.699354 -0.346447 44 52 50
0.939531 0.732626 -0.286197 59 65 64
0.944476 0.730918 -0.306754 44 45 41
0.960206 0.720506 -0.290044 47 52 52
0.977747 0.770952 -0.367299 90 96 92
0.952403 0.703534 -0.350878 45 52 54
0.998974 0.73608 -0.308568 68 72 67
0.922253 0.736803 -0.286758 41 51 49
0.991316 0.734882 -0.364579 54 55 46
0.996425 0.712752 -0.325065 70 76 74
0.978355 0.717338 -0.267439 57 63 59
0.977862 0.735486 -0.287024 51 55 51
0.917556 0.736788 -0.346384 99 103 100
1.00318 0.71768 -0.348437 58 60 52
0.999493 0.718715 -0.267942 74 79 78
0.955681 0.788174 -0.364278 56 57 48
0.996331 0.773016 -0.304726 81 85 79
0.979491 0.755924 -0.247626 56 59 52
0.998544 0.777458 -0.268015 80 84 78
0.978942 0.731762 -0.267532 61 65 62
0.958666 0.717796 -0.328482 46 52 50
0.983537 0.782509 -0.288748 79 84 78
1.00677 0.705371 -0.313296 112 119 117
1.01594 0.753379 -0.246843 70 73 69
1.01684 0.758031 -0.308339 72 75 67
1.00023 0.717704 -0.246977 89 96 96
0.981135 0.760691 -0.347172 57 59 49
0.999499 0.759689 -0.308004 60 63 54
0.972107 0.800468 -0.31959 64 65 55
0.978073 0.75685 -0.268031 55 58 52
0.960823 0.776421 -0.367899 67 70 63
0.96094 0.760841 -0.349333 51 53 44
1.03879 0.716174 -0.265752 57 61 61
1.01367 0.754858 -0.265619 86 88 81
0.920642 0.731825 -0.307061 40 51 50
0.944651 0.762383 -0.312234 57 59 49
0.978556 0.731778 -0.246291 66 70 67
1.0035 0.737218 -0.328149 61 63 55
1.01749 0.767859 -0.297941 116 123 123
0.918392 0.736029 -0.32876 74 83 80
0.981245 0.714739 -0.345062 75 80 77
0.91925 0.716331 -0.348814 55 63 61
1.01742 0.761306 -0.324618 83 87 81
0.960874 0.761719 -0.306293 52 55 47
1.00152 0.755269 -0.267505 60 63 55
0.959316 0.732762 -0.325705 69 75 73
0.977722 0.798123 -0.307239 70 72 63
1.01851 0.719988 -0.248878 61 64 63
0.981864 0.717754 -0.24772 63 70 66
1.01781 0.716876 -0.287893 53 57 54
0.957621 0.734307 -0.246364 72 78 77
0.996723 0.718289 -0.286608 61 65 64
1.01827 0.715404 -0.306075 52 56 52
0.958641 0.732115 -0.266985 75 80 79
0.938925 0.734405 -0.265962 57 63 62
0.958857 0.733251 -0.286705 80 85 83
0.974172 0.734068 -0.303922 52 56 53
0.925054 0.738381 -0.269574 54 59 59
0.997895 0.73528 -0.348614 58 60 53
1.02073 0.736069 -0.24789 56 58 56
0.997732 0.730053 -0.245322 53 57 58
1.02228 0.699783 -0.308934 66 70 65
0.979852 0.720122 -0.288079 74 79 77
1.01973 0.697737 -0.32807 62 69 66
0.959883 0.722993 -0.269532 48 54 54
1.00163 0.703043 -0.32793 53 63 63
0.980061 0.718832 -0.307344 59 64 62
0.959455 0.718625 -0.309186 49 54 51
1.00414 0.698735 -0.347438 59 65 61
1.01807 0.698054 -0.34757 70 74 70
0.977448 0.715373 -0.32574 60 67 64
0.939984 0.725063 -0.289807 46 53 55
0.927223 0.7249 -0.307418 43 52 55
0.95356 0.718805 -0.34202 55 61 60
0.921607 0.720952 -0.329388 40 50 50
0.939365 0.713737 -0.346649 42 48 47
1.00045 0.699382 -0.248164 51 58 56
0.965982 0.724643 -0.248124 47 54 54
0.984631 0.701071 -0.270798 47 54 47
0.994662 0.698446 -0.266831 46 53 52
0.981213 0.698093 -0.288446 45 53 50
0.989853 0.690514 -0.284586 42 52 51
0.976998 0.696482 -0.306956 45 52 49
0.967029 0.701028 -0.308061 44 52 51
0.955104 0.703444 -0.328274 43 50 49
0.99903 0.75821 -0.247009 60 63 57
1.00926 0.699717 -0.240157 54 55 56
1.00575 0.732281 -0.265172 52 53 52
0.960519 0.760308 -0.24668 57 60 52
0.961255 0.758054 -0.268421 54 58 50
0.960794 0.760368 -0.28617 52 55 47
0.941415 0.762106 -0.288574 57 59 50
0.939586 0.735784 -0.348136 68 74 72
0.952183 0.731304 -0.345265 58 63 59
0.938874 0.761386 -0.328105 53 56 48
0.943199 0.703198 -0.337128 40 47 45
0.934095 0.734941 -0.363658 80 86 84
0.934015 0.71975 -0.36214 39 43 38
0.977544 0.758199 -0.289615 55 58 50
0.976169 0.75709 -0.308061 53 56 50
0.95947 0.761134 -0.328528 51 54 45
0.959379 0.779145 -0.348006 60 64 56
0.977776 0.712671 -0.363275 64 69 64
0.960403 0.767813 -0.268964 48 52 43
0.953012 0.770719 -0.285402 47 50 42
0.958945 0.77375 -0.310535 50 53 44
0.935094 0.77912 -0.305616 82 85 79
0.937752 0.77551 -0.325119 53 56 48
1.02264 0.702023 -0.29122 85 90 85
1.01439 0.755578 -0.288412 64 67 59
1.00363 0.758612 -0.286275 57 60 51
0.982705 0.795464 -0.28711 61 62 53
0.997567 0.774899 -0.287894 77 80 74
1.01232 0.7383 -0.313755 52 54 45
0.998413 0.757019 -0.32785 56 59 49
0.98069 0.780431 -0.307698 77 81 74
0.997075 0.759011 -0.346002 70 73 66
0.975258 0.773589 -0.346962 70 73 65
0.965505 0.795996 -0.326412 57 59 49
0.96082 0.779117 -0.326517 78 84 77
0.979151 0.758964 -0.368288 55 58 48
0.984847 0.741555 -0.371661 50 52 43
0.973051 0.755399 -0.384211 52 54 45
0.961045 0.760741 -0.388796 52 54 44
0.979206 0.72879 -0.323217 49 52 42
0.978795 0.762217 -0.323766 59 61 51
0.958878 0.761979 -0.365283 52 55 45
0.968997 0.746612 -0.381781 47 50 40
0.9682 0.787974 -0.274511 52 55 45
0.983397 0.782179 -0.272925 105 111 109
1.02084 0.760173 -0.348335 79 83 77
1.03172 0.760027 -0.33832 89 93 89
0.977778 0.769499 -0.384355 83 88 82
1.03331 0.756029 -0.327713 98 103 99
0.99691 0.789574 -0.270962 68 69 60
0.981909 0.79317 -0.27065 84 87 81
0.963588 0.794361 -0.344704 62 63 53
0.941425 0.737306 -0.332803 108 116 114
0.992947 0.769717 -0.340711 111 119 118
0.942777 0.788194 -0.329575 110 118 116
