ply
format ascii 1.0
comment Created by Open3D
element vertex 243
property double x
property double y
property double z
property uchar red
property uchar green
property uchar blue
end_header
0.980586 0.716737 -0.104852 107 111 111
0.988718 0.661738 -0.0936217 57 60 53
1.03614 0.696265 -0.0298947 204 206 211
1.05014 0.729839 -0.0831511 215 215 223
1.00182 0.639344 -0.105759 168 170 175
1.0342 0.654046 -0.107877 114 118 118
1.08036 0.67206 -0.100965 233 234 242
1.05457 0.615298 -0.126591 108 112 114
1.02177 0.679363 -0.123233 84 88 90
1.07809 0.676826 -0.0884179 225 226 234
1.02003 0.617261 -0.0662222 201 201 207
1.05305 0.730599 -0.0516722 147 149 153
0.966403 0.679289 -0.0320992 211 209 215
1.05757 0.664732 -0.0347845 208 208 215
1.05858 0.677339 -0.0670506 209 209 218
1.05668 0.695423 -0.0869475 178 179 186
1.07637 0.695929 -0.0480815 213 212 219
1.06567 0.660244 -0.0681037 215 215 223
0.977867 0.716554 -0.047664 122 126 128
0.978846 0.695906 -0.125871 115 118 120
0.97769 0.6964 -0.0669704 173 175 178
1.04232 0.67816 -0.0308728 196 196 202
1.00088 0.719906 -0.0272068 125 130 132
1.04035 0.735696 -0.0658536 192 193 197
1.03143 0.658499 -0.122305 122 126 127
0.997802 0.716998 -0.107827 131 134 136
0.982864 0.716513 -0.086689 116 120 120
1.00398 0.638929 -0.0865707 203 204 211
0.996123 0.690385 -0.123812 123 126 129
0.99577 0.676867 -0.0323502 121 127 129
0.958878 0.698417 -0.129566 94 98 101
1.09329 0.634163 -0.0855807 216 216 223
1.03805 0.716141 -0.0672666 193 193 199
0.998894 0.679392 -0.124602 123 126 127
1.04051 0.698643 -0.0469414 186 186 192
0.995302 0.717178 -0.0867156 111 116 117
1.07411 0.7032 -0.100906 232 232 239
1.03174 0.610494 -0.0555634 208 208 211
0.984978 0.661566 -0.115195 246 246 252
1.05248 0.728652 -0.105761 223 223 230
0.982061 0.680004 -0.128756 113 117 116
0.958266 0.717054 -0.107084 131 135 137
1.03101 0.615366 -0.0697009 192 192 198
1.10052 0.656448 -0.0891411 223 223 230
1.03425 0.616131 -0.0878653 183 184 190
1.09263 0.629537 -0.0685838 211 210 217
1.02307 0.620707 -0.106459 228 228 235
1.06682 0.662475 -0.0847242 223 223 231
1.07241 0.710415 -0.0686384 188 189 195
0.995799 0.655707 -0.0675813 195 195 202
0.975238 0.637468 -0.0467785 89 94 94
1.0442 0.696794 -0.0864109 184 186 193
1.01878 0.674687 -0.106804 106 109 111
1.07113 0.708044 -0.0503024 213 214 219
1.09562 0.674955 -0.0659817 215 215 222
0.999969 0.698564 -0.0681115 132 135 138
1.01828 0.63697 -0.0871206 185 185 191
0.967247 0.65146 -0.120997 145 147 147
0.985999 0.678743 -0.111122 114 116 116
1.04261 0.599979 -0.103745 200 201 207
0.980588 0.696224 -0.0474998 152 154 157
1.02036 0.657039 -0.087191 127 130 134
1.02122 0.637695 -0.066327 144 146 150
0.995358 0.678147 -0.046281 141 142 144
1.08765 0.641149 -0.0974352 224 224 231
1.06694 0.702931 -0.0359587 213 212 216
1.05953 0.716662 -0.0694496 202 203 210
0.999852 0.676667 -0.0679627 197 197 203
1.06823 0.664828 -0.101548 233 235 243
1.01552 0.676618 -0.0865488 101 105 106
1.00027 0.656316 -0.0473219 191 192 198
1.05824 0.717195 -0.0480375 204 203 209
1.0183 0.655663 -0.0678848 131 133 137
1.01146 0.719112 -0.127711 182 184 188
1.01659 0.654313 -0.0497649 110 113 115
1.05662 0.615095 -0.109611 115 120 123
1.05914 0.716543 -0.107733 185 186 192
0.956399 0.69933 -0.0846523 128 133 135
1.09727 0.623414 -0.0668084 209 209 214
1.03317 0.635388 -0.067866 65 70 71
0.983665 0.677641 -0.0639357 165 166 170
1.00711 0.625784 -0.0631723 137 138 141
1.07917 0.695888 -0.0873554 214 215 223
1.00203 0.719763 -0.125793 102 106 108
1.04071 0.720654 -0.122522 187 189 194
0.976783 0.678412 -0.148095 71 76 74
0.980461 0.637659 -0.0326602 105 110 113
1.07606 0.658622 -0.0513544 210 211 217
1.05993 0.657568 -0.047085 210 210 217
1.0539 0.727758 -0.067921 214 213 220
1.06737 0.644646 -0.0439871 209 208 215
1.05177 0.691405 -0.0511439 155 158 163
0.999906 0.695059 -0.107008 140 143 146
1.01315 0.693986 -0.108985 88 92 93
1.07939 0.696189 -0.0690348 204 205 212
1.0601 0.678228 -0.103197 239 239 246
1.03741 0.715725 -0.0479842 185 186 191
1.04135 0.597012 -0.0871872 196 196 202
0.978461 0.677791 -0.046636 159 162 165
1.03502 0.730087 -0.0316644 211 210 215
0.977773 0.717542 -0.0302047 111 116 117
0.981582 0.699169 -0.0321876 148 150 153
0.978776 0.676594 -0.0343657 187 189 193
1.01848 0.637885 -0.0475797 129 133 136
1.01801 0.617621 -0.0495957 169 169 172
0.997052 0.696494 -0.0485359 113 118 118
0.980745 0.716888 -0.0664366 115 119 120
0.997481 0.714048 -0.065992 107 113 114
1.02397 0.617622 -0.0872545 217 217 224
0.998986 0.698709 -0.088257 126 129 132
0.997673 0.676587 -0.0879683 203 204 211
1.01623 0.634469 -0.103696 230 231 238
1.03712 0.612827 -0.106859 208 209 215
1.01926 0.656195 -0.107008 126 130 132
1.05814 0.597684 -0.108968 156 158 163
1.00029 0.679592 -0.10715 197 198 204
0.994441 0.657324 -0.104338 216 216 223
1.04586 0.616848 -0.124468 141 145 147
0.976136 0.659177 -0.122277 176 178 177
1.01696 0.696538 -0.122961 158 160 163
0.976936 0.713848 -0.124838 128 131 130
1.01636 0.715413 -0.0289839 167 168 172
1.02127 0.699466 -0.0274583 167 171 175
1.07741 0.635819 -0.0496088 209 209 214
1.04398 0.678276 -0.0478681 174 175 180
1.039 0.65816 -0.0424673 139 142 146
1.08781 0.624343 -0.0512375 206 207 211
1.09179 0.622751 -0.0546098 206 207 211
1.02203 0.718212 -0.0456242 185 186 190
1.05697 0.677102 -0.0481892 202 202 208
1.07446 0.652245 -0.068124 214 214 221
1.0828 0.639278 -0.0657056 211 211 219
1.04191 0.697258 -0.0670922 159 161 167
1.04681 0.681573 -0.0684402 118 120 123
1.02041 0.721173 -0.0676785 156 161 163
1.05549 0.694448 -0.0680052 166 168 174
1.08419 0.644559 -0.0840577 218 218 225
1.05923 0.67868 -0.0876439 192 194 202
1.07882 0.655516 -0.0879969 223 223 230
1.02102 0.722383 -0.0861135 162 165 170
1.03976 0.716752 -0.0868676 203 204 211
1.09824 0.67076 -0.0550658 212 212 219
1.07786 0.656882 -0.100277 231 233 239
1.05413 0.696976 -0.107237 211 212 219
1.02566 0.723324 -0.103584 187 189 194
1.04025 0.717978 -0.106115 202 203 209
1.04843 0.702462 -0.102714 228 228 237
1.05009 0.640144 -0.110261 196 198 198
1.04167 0.681501 -0.107813 87 92 94
1.03578 0.680139 -0.120675 123 127 127
1.0583 0.7154 -0.121368 181 183 189
1.03663 0.731459 -0.122143 224 224 231
1.05368 0.673489 -0.0325724 209 209 216
1.03908 0.714156 -0.0309948 166 170 173
1.10602 0.640194 -0.050818 210 209 213
1.07757 0.677712 -0.0469796 211 210 218
1.07966 0.675848 -0.066376 215 215 223
1.10513 0.657788 -0.0707926 215 215 222
1.05983 0.715946 -0.0878167 187 188 195
1.10178 0.660633 -0.102508 234 236 242
1.03782 0.735582 -0.108134 220 220 227
0.982072 0.653913 -0.032561 117 121 124
0.995294 0.636044 -0.048531 211 210 217
1.00394 0.616686 -0.0479089 177 176 180
0.954839 0.697248 -0.0335291 210 210 214
0.980521 0.65778 -0.0473019 136 140 143
1.01999 0.600639 -0.052228 206 206 210
0.960331 0.697854 -0.0452444 183 184 185
1.02471 0.601074 -0.0636899 209 208 214
1.00195 0.636809 -0.066719 213 213 220
0.958568 0.719835 -0.0492333 99 106 107
0.958962 0.716888 -0.0676482 125 129 133
0.964355 0.696278 -0.068527 130 135 136
0.99642 0.656078 -0.0866422 194 195 203
0.980827 0.697299 -0.0887265 164 166 170
0.987673 0.681247 -0.084839 120 123 123
0.957856 0.714678 -0.0854207 113 117 120
0.981528 0.697531 -0.108132 137 140 142
0.962607 0.703393 -0.10772 111 115 116
0.968061 0.650727 -0.117122 248 249 253
0.958128 0.716586 -0.12466 141 144 146
1.05554 0.71551 -0.0294038 195 198 202
1.073 0.694857 -0.0335422 210 211 216
1.0778 0.684365 -0.0337089 212 211 215
1.10487 0.660804 -0.049656 211 211 216
1.04064 0.733376 -0.0484447 206 205 211
1.09677 0.674452 -0.0853188 223 224 232
1.07263 0.711632 -0.0896466 164 167 172
1.07058 0.712835 -0.10969 168 171 176
0.998521 0.643812 -0.12031 249 249 249
1.07019 0.716698 -0.121831 234 234 243
1.0155 0.675237 -0.0545298 69 74 76
1.03425 0.654868 -0.0892893 81 87 87
0.977567 0.658756 -0.0653155 57 61 57
1.03181 0.634001 -0.0446435 73 79 80
1.01776 0.700118 -0.0466473 92 98 99
0.992787 0.659477 -0.0317208 89 94 96
1.0131 0.684085 -0.0246532 97 103 106
0.94774 0.705413 -0.113744 61 68 70
1.04088 0.637556 -0.108954 70 76 76
0.945568 0.70199 -0.0938015 97 103 108
1.04907 0.694158 -0.119141 64 67 70
0.991364 0.643245 -0.0289815 106 112 117
1.05031 0.629918 -0.125968 54 61 63
0.973604 0.618765 -0.0460457 101 106 112
1.00311 0.722688 -0.1457 68 74 73
1.05906 0.623935 -0.0970245 91 97 97
1.0146 0.698087 -0.0646552 83 90 91
1.01729 0.684285 -0.014503 73 80 82
1.04347 0.68087 -0.0863807 65 71 73
1.01343 0.652243 -0.139632 70 75 75
0.967519 0.678207 -0.0459796 152 159 160
1.03815 0.635479 -0.121516 78 85 86
1.00048 0.655545 -0.146767 79 85 85
0.964894 0.680127 -0.0685293 100 106 111
0.961226 0.654206 -0.0156763 115 122 119
1.02421 0.638493 -0.0342311 69 74 76
1.0163 0.719685 -0.0142801 82 89 91
1.05406 0.632733 -0.093405 82 88 87
0.999392 0.696246 -0.0296474 88 94 95
0.96076 0.655515 -0.067771 89 95 97
0.961498 0.636699 -0.0639623 84 89 90
0.968741 0.632838 -0.0554977 100 106 111
0.956327 0.681818 -0.0777961 99 105 110
0.999626 0.71668 -0.0472119 80 87 88
1.03335 0.661868 -0.0654639 87 93 93
1.01803 0.677674 -0.0675401 82 87 87
1.0141 0.693646 -0.0881001 72 79 80
1.03746 0.637435 -0.0885395 67 72 73
1.01837 0.65606 -0.126626 78 83 83
1.00392 0.663782 -0.12715 76 81 79
1.01382 0.636575 -0.152103 76 81 80
1.00415 0.646091 -0.152853 83 89 89
0.975773 0.690368 -0.14224 62 66 60
0.983559 0.663455 -0.155214 83 89 89
0.992931 0.651506 -0.159767 82 88 88
1.01808 0.689795 -0.0151259 122 130 133
1.03092 0.639859 -0.0301474 71 78 81
1.02372 0.651099 -0.0356223 71 76 79
0.954615 0.65603 -0.0256838 111 119 116
0.946449 0.655097 -0.0306705 59 66 64
1.01224 0.721441 -0.139252 54 58 53
0.974494 0.645363 -0.0602314 56 60 54
