ply
format ascii 1.0
comment Created by Open3D
element vertex 219
property double x
property double y
property double z
property uchar red
property uchar green
property uchar blue
end_header
-0.78835 -1.04814 0.0447539 67 79 84
-0.798929 -1.00581 0.0535746 51 53 55
-0.840383 -1.06188 0.0706388 95 102 105
-0.845102 -1.08252 0.0306765 88 91 91
-0.880012 -1.04483 0.0149599 71 63 65
-0.922219 -1.07813 0.0719098 56 60 65
-0.954337 -1.12219 0.0606808 80 88 92
-0.948795 -1.11474 0.110164 64 62 61
-0.844446 -1.04841 0.072165 103 110 115
-0.842393 -1.04928 0.0870391 86 83 85
-0.899995 -1.11625 0.0490111 98 106 110
-0.878948 -1.09916 0.0906668 95 95 98
-0.920084 -1.08458 0.0917693 97 115 121
-0.818411 -1.03949 0.0401246 117 126 137
-0.879987 -1.08145 0.0372836 103 109 117
-0.806495 -1.10354 -0.00829906 115 116 115
-0.912821 -1.12278 0.0793639 95 106 109
-0.859942 -1.14768 0.0121184 99 111 112
-0.865602 -1.06764 0.0497081 90 94 98
-0.842245 -1.124 0.0314333 84 87 90
-0.920288 -1.06561 0.0893734 64 68 72
-0.899538 -1.12075 0.0728323 72 77 80
-0.823389 -1.1014 0.0467251 60 57 58
-0.829559 -1.0225 0.0187817 56 50 51
-0.921638 -1.1041 0.0906387 92 106 109
-0.922307 -1.10782 0.0735009 103 120 124
-0.882435 -1.10422 0.0516437 104 118 123
-0.884173 -1.04993 0.0331035 50 47 50
-0.821517 -1.1408 0.0142692 81 78 79
-0.898905 -1.09863 0.0917012 86 97 100
-0.882774 -1.08411 0.0902918 92 105 106
-0.89967 -1.065 0.0955019 99 113 117
-0.861188 -1.06267 0.0322642 79 78 78
-0.902726 -1.06588 0.105751 100 109 111
-0.787336 -1.0678 0.0529107 79 71 74
-0.812375 -1.03075 0.0630473 106 121 125
-0.816476 -1.00072 0.0528451 76 75 79
-0.841561 -1.08333 0.0123735 80 80 80
-0.844627 -1.06558 0.0145145 77 73 71
-0.958856 -1.07188 0.0751449 51 52 52
-0.844027 -1.08378 0.0719569 99 103 105
-0.816906 -1.10303 -0.00540134 88 89 88
-0.956455 -1.12269 0.0975714 96 112 114
-0.853446 -1.12707 -0.00155575 109 126 129
-0.870179 -1.10207 0.0857236 102 102 106
-0.820555 -1.08151 0.068261 72 67 68
-0.86231 -1.12446 0.0513685 93 96 99
-0.878574 -1.0193 0.0701626 51 50 53
-0.918336 -1.03147 0.0722474 48 45 46
-0.796472 -1.00893 0.0410626 70 70 72
-0.960137 -1.14072 0.0733545 94 108 111
-0.938836 -1.068 0.0965812 67 70 72
-0.844769 -1.10401 0.0663078 74 66 69
-0.837853 -1.03463 0.0203289 82 72 73
-0.796557 -1.08148 0.0764143 93 79 82
-0.864583 -1.08592 0.0500823 94 105 109
-0.802008 -1.02714 0.0532014 76 84 88
-0.837049 -1.12534 0.000112644 100 117 120
-0.787881 -1.02432 0.0442894 58 67 69
-0.936615 -1.10973 0.0741407 103 121 125
-0.80104 -1.08317 0.0344705 43 42 44
-0.858327 -1.12232 0.0342997 95 104 108
-0.855529 -1.01904 0.0345554 89 84 84
-0.878476 -1.10587 0.0339321 107 118 124
-0.783516 -1.06549 0.0374048 69 70 72
-0.8188 -0.999285 0.0702554 79 84 91
-0.859466 -1.10528 0.035811 103 123 128
-0.840521 -1.06829 0.0358841 99 104 107
-0.883353 -1.06896 0.0917908 92 101 103
-0.818681 -1.06204 0.0698448 66 57 60
-0.841608 -1.10366 0.0520491 72 69 72
-0.900492 -1.03021 0.0515843 25 23 31
-0.918887 -1.1243 0.0906116 81 88 89
-0.972683 -1.13529 0.0617495 28 31 34
-0.905916 -1.12503 0.0935756 83 82 84
-0.821758 -1.02579 0.0330558 67 61 60
-0.982484 -1.12262 0.0872754 76 88 91
-0.86256 -1.0246 0.0704951 53 55 61
-0.89373 -1.04266 0.035543 44 43 48
-0.98182 -1.13179 0.0708745 80 92 95
-0.878218 -1.12084 0.0335257 99 102 106
-0.963229 -1.12311 0.111219 88 93 95
-0.925433 -1.0484 0.0862965 48 50 53
-0.803617 -1.07281 0.0832059 106 89 95
-0.881599 -1.085 0.0712052 100 115 119
-0.829091 -1.12286 0.0457132 81 73 74
-0.862183 -1.05084 0.015126 53 48 47
-0.820864 -1.06688 0.0365855 100 107 111
-0.859107 -1.06487 0.0153717 71 64 61
-0.823746 -1.1263 0.0315579 80 71 73
-0.946214 -1.11984 0.0741017 104 121 125
-0.905994 -1.0461 0.066724 60 62 65
-0.942994 -1.0697 0.106518 79 88 90
-0.896627 -1.02257 0.0293852 39 35 41
-0.860634 -1.10243 0.0523561 90 104 108
-0.824339 -1.08451 0.0517349 70 68 70
-0.82555 -1.10274 0.0141672 99 111 113
-0.880847 -1.08432 0.0543979 93 104 110
-0.880559 -1.10314 0.0734217 93 105 109
-0.784722 -1.02836 0.0340531 66 71 73
-0.897583 -1.10576 0.0552766 100 110 114
-0.795162 -1.06216 -0.00197622 82 79 74
-0.901445 -1.1035 0.072391 102 119 124
-0.95314 -1.11999 0.0736024 82 89 94
-0.823544 -1.06331 0.0527269 87 92 96
-0.862416 -1.04588 0.0321614 65 62 62
-0.895328 -1.09571 0.104494 56 52 52
-0.860429 -1.12006 0.0122749 103 119 122
-0.812866 -1.00031 0.0403766 81 70 71
-0.843582 -1.02351 0.0321415 71 64 65
-0.942241 -1.14297 0.0724187 83 95 97
-0.923416 -1.09123 0.106981 99 119 122
-0.938355 -1.07846 0.0744837 61 66 70
-0.972641 -1.07775 0.0870162 49 55 61
-0.781728 -1.046 0.0354273 79 92 95
-0.940757 -1.13996 0.0548809 79 91 94
-0.78236 -1.08373 0.0522468 98 85 89
-0.783828 -1.08567 0.0697574 102 86 91
-0.799934 -1.06197 0.0369529 92 95 98
-0.799883 -1.06311 0.0525414 86 76 80
-0.800137 -1.04345 0.049699 72 82 87
-0.801625 -1.06569 0.0720631 94 79 84
-0.78988 -1.06961 0.069737 96 82 85
-0.838818 -1.03984 0.0341792 92 91 93
-0.819078 -1.04727 0.0529372 102 107 114
-0.844534 -1.00902 0.0275029 61 56 58
-0.842643 -1.04492 0.0532016 100 107 114
-0.881219 -1.12255 0.0536236 90 90 94
-0.796238 -1.02834 0.0399381 70 72 73
-0.784059 -1.08247 0.0357528 73 63 66
-0.839573 -1.10016 0.0316078 104 118 121
-0.859094 -1.10805 0.0151486 99 107 110
-0.882667 -1.11088 0.0135429 102 110 115
-0.879386 -1.11718 0.0140402 101 107 112
-0.876789 -1.06017 0.0180189 71 64 65
-0.875023 -1.07455 0.0198258 87 87 88
-0.879915 -1.06288 0.0327454 66 64 66
-0.893793 -1.05437 0.0294689 55 52 55
-0.881765 -1.0655 0.0516785 77 79 82
-0.893656 -1.08141 0.0522939 75 79 83
-0.840113 -1.12382 0.0516198 83 74 76
-0.900368 -1.08099 0.0731129 78 89 92
-0.817383 -1.0814 0.0341751 79 82 85
-0.823135 -1.10455 0.0336278 83 80 82
-0.838126 -1.02141 0.0158722 68 62 62
-0.837186 -1.08578 0.0540716 86 91 94
-0.835341 -1.06311 0.0534794 98 102 105
-0.842369 -1.02424 0.0498989 49 48 51
-0.857654 -1.02088 0.0540498 61 57 61
-0.853149 -1.03475 0.0597755 87 90 94
-0.857857 -1.03678 0.0738288 113 123 132
-0.844861 -1.05806 0.0874256 80 69 71
-0.809529 -1.00235 0.0646541 65 69 73
-0.804262 -1.12607 0.0305008 84 74 76
-0.805757 -1.10994 0.0329583 88 77 79
-0.85366 -1.12061 0.0652648 86 76 78
-0.884769 -1.02257 0.010358 54 52 57
-0.86275 -1.1028 0.0737891 83 88 89
-0.898462 -1.04364 0.0537936 42 42 46
-0.894623 -1.06076 0.0561834 53 55 58
-0.883173 -1.06362 0.0729219 100 114 119
-0.903689 -1.06242 0.0708715 59 64 69
-0.91632 -1.04286 0.0755032 45 46 50
-0.915152 -1.05755 0.0804429 59 63 68
-0.82255 -1.12428 0.0107377 96 107 110
-0.889149 -1.11675 0.00103462 93 98 104
-0.896287 -1.11535 0.00988311 90 95 99
-0.882188 -1.12041 0.0689539 80 77 80
-0.860976 -1.08302 0.074037 93 102 103
-0.866413 -1.08165 0.0896373 80 78 79
-0.962641 -1.07718 0.0786629 47 51 54
-0.942126 -1.0769 0.091297 81 89 93
-0.960315 -1.07642 0.0902229 59 62 64
-0.919159 -1.06546 0.10722 96 112 115
-0.839493 -1.12279 0.0155995 103 119 122
-0.840145 -1.10407 0.0157807 90 103 105
-0.891029 -1.11438 -0.00214816 77 70 66
-0.90636 -1.11821 0.0387533 107 120 124
-0.919011 -1.11122 0.0566372 105 123 128
-0.943088 -1.12167 0.0527566 61 69 72
-0.941571 -1.12318 0.0940185 90 97 99
-0.940372 -1.10573 0.0907652 101 120 124
-0.959643 -1.10849 0.0949793 102 118 121
-0.981761 -1.10892 0.0924196 96 107 111
-0.962281 -1.10228 0.112796 101 115 118
-0.822969 -1.03211 0.0504118 77 75 78
-0.846243 -1.02783 0.0633689 48 45 48
-0.855316 -1.06426 0.00120725 63 59 57
-0.980698 -1.1396 0.0735327 75 87 90
-0.901468 -1.08822 0.0924082 100 118 122
-0.908164 -1.09264 0.103391 89 92 93
-0.922273 -1.09857 0.110427 88 94 95
-0.940846 -1.10161 0.112601 91 103 106
-0.945202 -1.10112 0.12848 66 64 65
-0.940541 -1.08749 0.115372 97 114 118
-0.92059 -1.14231 0.0534192 95 111 113
-0.816878 -1.12222 -0.00627016 106 123 126
-0.806356 -1.13278 0.00511395 67 66 64
-0.916839 -1.121 0.045477 95 104 106
-0.854949 -1.14321 -0.00270657 86 95 93
-0.957109 -1.11064 0.0790682 38 41 44
-0.823191 -1.08739 -0.00794595 77 74 72
-0.800563 -1.04874 -0.000201238 69 65 60
-0.804374 -1.05658 0.00667494 55 53 48
-0.803857 -1.04792 0.00666338 66 61 59
-0.820021 -1.06903 0.0194418 75 73 69
-0.860389 -1.07843 0.0334763 74 71 69
-0.919932 -1.0804 0.0568263 41 42 47
-0.866399 -1.07008 0.0806823 104 127 129
-0.925901 -1.06923 0.0562831 35 36 43
-0.822869 -1.08845 0.00555007 87 80 79
-0.833442 -1.11209 0.00197167 89 89 89
-0.851506 -1.08181 0.0123663 76 71 67
-0.941653 -1.10407 0.0580057 46 49 52
-0.838268 -1.08019 -0.0045094 62 59 57
-0.851652 -1.07555 -0.00259506 66 62 60
-0.879797 -1.05034 0.0498773 61 60 60
-0.916004 -1.04002 0.0615563 57 55 54
-0.808168 -1.07801 0.0439784 43 39 41
