ply
format ascii 1.0
comment Created by Open3D
element vertex 1262
property double x
property double y
property double z
property uchar red
property uchar green
property uchar blue
end_header
0.479977 -0.519272 1.85177 245 243 244
0.478941 -0.502241 1.83197 233 233 232
0.45903 -0.520522 1.82995 234 231 230
0.91989 -0.742225 2.3527 201 204 206
0.901851 -0.761364 2.351 173 174 180
0.899566 -0.763941 2.33194 174 175 180
0.779706 -0.743956 2.19396 214 218 220
0.599092 -0.581002 1.99214 222 218 224
0.598373 -0.564607 1.97111 188 187 193
0.499323 -0.521688 1.85248 241 238 240
0.479249 -0.521424 1.83097 240 237 237
0.459673 -0.562374 1.79096 213 208 206
0.958424 -0.741769 2.39298 196 199 200
0.919327 -0.762717 2.35323 213 213 219
0.901281 -0.780355 2.31298 205 204 211
0.885233 -0.780364 2.2942 179 179 186
0.819838 -0.74284 2.23184 171 175 178
0.778969 -0.743777 2.17311 215 218 220
0.617125 -0.582556 1.991 219 216 224
0.561854 -0.558121 1.93307 227 223 230
0.539541 -0.541066 1.89165 239 236 240
0.460225 -0.582737 1.79031 171 169 168
1.10214 -0.764557 2.57119 177 176 179
1.02922 -0.733049 2.47574 197 197 202
0.898594 -0.783448 2.29344 205 205 209
0.902052 -0.803675 2.29004 161 163 166
0.558909 -0.543364 1.9118 221 220 224
1.27897 -0.800591 2.75321 111 111 99
1.2375 -0.783226 2.69586 113 114 100
0.940414 -0.764567 2.33486 194 194 197
0.887345 -0.807988 2.26594 83 84 90
0.539342 -0.53994 1.8717 243 239 243
0.478932 -0.543395 1.79272 229 226 225
0.477336 -0.582948 1.7906 199 196 199
0.478059 -0.603746 1.79046 147 146 148
1.21312 -0.781284 2.65483 108 108 97
0.995703 -0.748663 2.39612 230 226 237
0.976995 -0.763532 2.37532 191 191 194
0.918911 -0.800978 2.31203 194 195 197
0.839027 -0.783311 2.19341 205 204 208
0.660009 -0.621352 2.01587 134 137 141
0.597935 -0.565358 1.93326 200 198 204
0.480172 -0.621381 1.79007 165 163 166
0.992928 -0.783662 2.37546 187 182 189
0.835195 -0.782968 2.17876 199 199 203
0.657503 -0.609552 1.98843 223 220 228
0.518585 -0.523832 1.83227 236 235 235
0.498907 -0.641774 1.79171 165 163 168
0.578398 -0.543174 1.89256 193 194 198
0.520335 -0.540974 1.85174 246 244 244
0.500834 -0.602902 1.78732 198 192 199
0.522823 -0.658654 1.81046 216 215 215
0.637321 -0.584724 1.95412 213 213 218
0.580245 -0.561263 1.89273 244 239 246
0.521098 -0.540417 1.83116 244 241 242
0.519056 -0.541827 1.81148 241 238 239
0.519924 -0.66126 1.79014 101 101 108
0.637451 -0.598963 1.95343 151 151 157
0.518057 -0.622747 1.78815 201 198 201
0.61794 -0.580397 1.91385 203 201 207
0.559132 -0.543971 1.83236 229 228 230
0.538734 -0.543521 1.81214 237 235 236
0.578126 -0.543946 1.85273 202 201 204
0.540134 -0.558851 1.80909 243 239 242
0.519399 -0.623422 1.77175 123 122 129
0.556945 -0.543575 1.8133 222 220 222
0.538479 -0.563484 1.79308 234 232 234
0.558895 -0.562388 1.81139 223 221 225
0.281367 -0.856126 1.37602 209 209 217
0.540774 -0.602271 1.7882 219 215 218
0.538639 -0.642308 1.77168 48 50 60
0.577898 -0.563363 1.8329 196 194 198
0.556365 -0.56464 1.7948 221 218 222
0.639205 -0.583869 1.89437 247 239 250
0.541344 -0.621588 1.79049 136 137 140
0.635335 -0.585197 1.87337 238 229 240
0.615222 -0.568855 1.85413 246 238 248
0.595755 -0.565444 1.83499 231 225 232
0.556764 -0.604206 1.7775 194 186 191
0.557113 -0.643225 1.77431 45 47 56
0.577025 -0.681044 1.79088 69 71 78
0.612831 -0.587075 1.8362 224 216 226
0.59448 -0.584913 1.81586 231 223 233
0.573526 -0.642179 1.78159 89 81 89
0.591507 -0.608942 1.79953 220 210 218
0.578544 -0.621187 1.78726 197 183 188
0.578322 -0.642274 1.79022 130 124 128
0.555651 -0.743774 1.73597 71 68 78
0.218216 -0.71595 1.44587 231 229 239
0.500926 -0.717799 2.7929 184 185 186
0.719601 -0.690388 2.57394 192 199 197
0.688753 -0.660509 2.73063 179 183 180
0.674563 -0.561554 2.11508 64 70 72
0.687744 -0.660851 2.75023 177 184 180
-0.0172008 -0.364994 2.05158 249 239 247
-0.0195363 -0.384251 1.99192 249 240 249
-0.00205802 -0.349901 2.11133 239 228 236
-0.0159665 -0.429037 1.9155 252 243 250
0.00219233 -0.379263 2.03091 245 233 239
-0.00128412 -0.401882 1.97217 239 228 236
-0.000658112 -0.38484 1.9729 242 231 238
0.0195382 -0.401738 1.9716 238 228 230
0.0197841 -0.404575 1.95227 231 223 224
0.0387597 -0.401388 1.953 237 227 228
0.0388046 -0.403316 1.93257 236 227 229
0.0628853 -0.351962 2.13176 237 226 233
0.0553329 -0.391925 1.97702 251 243 244
0.0591585 -0.403489 1.95285 244 235 239
0.613248 -0.54941 1.93144 68 73 77
0.0587725 -0.405899 1.93262 244 234 243
0.0576914 -0.423625 1.89281 244 236 240
0.402963 -0.663943 3.1326 102 105 112
0.418565 -0.604421 3.13236 13 19 40
0.153952 -0.346865 2.08779 240 232 238
0.420043 -0.699488 2.85151 184 184 185
0.538432 -0.55166 3.10622 11 18 36
0.478846 -0.705115 2.89359 177 178 178
0.478416 -0.703289 2.87337 180 181 181
0.499716 -0.683249 2.91247 167 168 173
0.497686 -0.702979 2.91066 176 177 178
0.218291 -0.388848 2.07138 221 217 219
0.557293 -0.54867 3.08928 11 17 34
0.232494 -0.390013 2.09074 241 233 240
0.237226 -0.392445 2.10421 238 233 239
0.230964 -0.391786 2.07819 243 235 240
0.537778 -0.603283 2.93174 16 23 44
0.538621 -0.683715 2.89405 165 166 170
0.258686 -0.406791 2.13214 206 205 204
0.557176 -0.662376 2.89441 68 73 85
0.579387 -0.702198 2.89262 177 178 181
0.258895 -0.405456 2.03198 212 211 213
0.299258 -0.424092 2.07233 211 209 212
0.339474 -0.445619 2.13265 203 202 204
0.317376 -0.428385 2.09274 199 198 199
0.317738 -0.42989 2.07369 205 203 204
0.277935 -0.408833 1.99179 217 216 217
0.337767 -0.445209 2.09268 204 203 205
0.317483 -0.429668 2.05289 201 200 201
0.314892 -0.427724 2.03349 205 203 206
0.373223 -0.467558 2.13454 198 197 200
0.219382 -0.444539 1.8126 238 233 231
0.372398 -0.4702 2.1141 203 201 206
0.238917 -0.446086 1.81291 227 223 220
0.397814 -0.487691 2.1733 196 197 199
0.375138 -0.470482 2.0909 209 207 212
0.258143 -0.443353 1.81235 213 212 207
0.638789 -0.715407 2.50798 90 91 101
0.779211 -0.719056 2.75236 190 192 196
0.779434 -0.719657 2.7327 185 187 190
0.738666 -0.719273 2.67363 110 112 118
0.778687 -0.719853 2.71262 181 182 185
0.739708 -0.719198 2.65214 91 93 99
0.658946 -0.715284 2.49134 33 38 46
0.498375 -0.563107 2.21169 224 220 227
0.779829 -0.720592 2.69195 159 161 165
0.780117 -0.721937 2.67279 153 155 159
0.759316 -0.718753 2.65132 97 99 105
0.759349 -0.720026 2.63289 74 77 84
0.677771 -0.714966 2.47475 76 79 86
0.696702 -0.714179 2.507 160 161 166
0.701955 -0.714106 2.5006 35 39 52
0.498955 -0.562001 2.17479 225 221 226
0.297796 -0.46423 1.79245 217 215 211
0.760786 -0.722028 2.57241 69 72 80
0.540646 -0.577537 2.21245 207 207 212
0.5011 -0.55923 2.153 227 223 227
0.738845 -0.714821 2.53414 66 69 78
0.720729 -0.716663 2.50917 144 146 152
0.701245 -0.713612 2.46275 25 27 36
0.558612 -0.578792 2.21033 202 201 206
0.760165 -0.71652 2.53256 61 66 75
0.739287 -0.716843 2.51351 69 72 82
0.316362 -0.469626 1.81251 204 203 196
0.760605 -0.718614 2.51376 82 87 95
1.27841 -0.901201 2.63703 74 71 60
0.76153 -0.719791 2.49602 141 143 149
0.741208 -0.716122 2.46754 22 24 39
0.579222 -0.595657 2.23094 236 230 239
0.560285 -0.578432 2.19186 219 219 222
0.758437 -0.717589 2.47501 23 27 42
0.740502 -0.715883 2.44884 24 28 40
0.559412 -0.581268 2.17242 230 227 229
0.359242 -0.463874 1.83507 230 228 224
0.759327 -0.717816 2.45304 22 24 39
0.588434 -0.59582 2.16959 245 237 244
0.899167 -0.738592 2.53495 200 200 205
0.880093 -0.738022 2.51226 191 193 197
0.663893 -0.619013 2.21136 145 143 150
0.999661 -0.736457 2.67228 201 202 207
0.879627 -0.740754 2.49188 188 188 194
0.841997 -0.73836 2.42884 122 127 130
0.539813 -0.561583 2.03088 220 219 222
0.398907 -0.486537 1.81399 233 230 227
1.01898 -0.736528 2.68768 188 189 192
1.01932 -0.73524 2.66999 203 204 209
0.899884 -0.740057 2.49261 192 193 197
0.879815 -0.740631 2.47055 126 125 131
0.500919 -0.541346 1.97296 224 222 225
1.03924 -0.737817 2.70783 198 198 202
1.03759 -0.735743 2.6846 202 200 204
0.878883 -0.739527 2.45224 152 154 157
1.07928 -0.738586 2.71607 195 195 199
1.06276 -0.738809 2.70071 200 200 205
0.879769 -0.741215 2.43303 167 172 174
0.579206 -0.579915 2.05347 223 221 224
1.06062 -0.737237 2.67376 198 199 202
1.02092 -0.739752 2.63401 202 204 207
0.919579 -0.743318 2.473 183 185 188
0.540248 -0.560363 1.99407 222 220 224
0.959445 -0.74172 2.51087 207 210 213
0.877184 -0.744437 2.41353 181 187 188
0.722913 -0.661849 2.21023 119 119 126
0.539349 -0.561919 1.97443 219 219 221
1.0604 -0.73879 2.63255 202 205 207
0.959735 -0.743881 2.49061 205 208 211
0.958683 -0.763077 2.37146 189 190 193
0.759445 -0.683286 2.23171 111 113 121
0.760144 -0.686979 2.21607 93 94 103
0.659644 -0.622266 2.0914 70 74 82
0.958399 -0.743541 2.4718 201 204 207
0.93852 -0.744466 2.43382 208 210 214
0.792311 -0.664521 2.26974 38 40 53
0.777543 -0.681019 2.23378 70 73 82
0.639297 -0.597711 2.05227 103 106 112
0.938495 -0.761394 2.43229 193 196 199
0.937525 -0.760722 2.41276 197 199 203
0.919731 -0.760941 2.39434 181 183 187
0.779606 -0.72357 2.23349 169 173 176
0.620526 -0.599657 2.04989 114 117 122
0.999713 -0.741787 2.47168 199 202 204
0.976753 -0.761849 2.45394 215 216 220
0.382127 -0.759213 1.60436 76 81 89
0.95847 -0.762304 2.43046 215 215 220
0.900502 -0.762665 2.3712 189 192 196
0.657891 -0.627156 2.05542 56 61 67
0.998286 -0.760924 2.45203 202 204 206
1.19965 -0.760242 2.71339 151 150 149
1.17928 -0.764218 2.69206 157 155 155
1.14022 -0.76267 2.63383 165 164 166
1.09994 -0.764434 2.59173 184 184 186
0.978675 -0.761511 2.41265 205 204 209
0.937991 -0.763631 2.37181 207 208 214
0.818811 -0.744839 2.21296 170 173 177
0.801993 -0.760089 2.21213 214 217 219
0.798707 -0.762673 2.19381 211 214 216
0.621381 -0.601021 2.01439 158 159 165
1.18069 -0.782906 2.65164 141 138 139
1.08255 -0.762661 2.55289 187 186 189
1.02105 -0.759937 2.47189 199 198 203
1.01867 -0.760918 2.4531 185 185 188
0.561156 -0.556963 1.91279 233 230 236
0.436328 -0.564941 1.75405 152 151 151
0.42076 -0.583923 1.73234 212 210 209
1.2595 -0.801277 2.73021 122 122 114
1.2407 -0.803862 2.71225 131 129 125
1.05942 -0.76102 2.51356 182 183 185
1.03787 -0.762193 2.47158 189 188 192
1.01598 -0.763801 2.43617 194 192 197
0.996887 -0.763374 2.4139 191 190 194
0.877253 -0.77828 2.27193 196 198 198
0.603431 -0.581707 1.95386 230 226 235
0.459429 -0.563823 1.77511 199 197 195
1.26003 -0.802219 2.71433 96 96 83
1.19727 -0.821754 2.65048 128 127 123
0.980206 -0.780827 2.37041 181 179 183
0.875326 -0.780942 2.25633 188 190 191
0.438625 -0.583278 1.7331 114 115 120
0.42028 -0.583235 1.71256 166 165 166
1.26348 -0.804908 2.69281 94 90 77
1.23342 -0.818394 2.67444 104 106 94
1.07034 -0.786435 2.47617 176 171 177
0.577991 -0.663038 1.83467 107 111 115
1.03789 -0.781392 2.45315 189 187 193
1.01754 -0.782058 2.4149 195 191 198
1.0003 -0.780315 2.39157 192 189 194
0.857235 -0.782235 2.21221 168 170 171
0.639704 -0.601118 1.97226 210 209 214
0.601518 -0.581289 1.9323 228 227 230
0.559373 -0.560459 1.89113 240 237 240
0.479212 -0.583198 1.77338 183 181 182
0.401771 -0.581186 1.69097 221 217 216
1.27871 -0.770302 2.70791 95 73 49
1.052 -0.824426 2.43781 179 177 179
0.889931 -0.794028 2.23999 231 227 238
0.459521 -0.603622 1.75164 107 108 114
0.419843 -0.601525 1.71113 147 148 150
1.28254 -0.76301 2.69076 112 90 65
1.28166 -0.802474 2.69253 91 84 70
1.26438 -0.807468 2.67827 96 95 85
0.561557 -0.558565 1.87124 247 242 247
0.499911 -0.64252 1.77282 83 84 91
0.417522 -0.584441 1.69342 154 152 154
0.478962 -0.623095 1.75276 80 82 89
1.30195 -0.766287 2.67603 116 104 93
0.498483 -0.582257 1.77197 212 209 211
0.480496 -0.641454 1.75169 60 62 71
0.45741 -0.624208 1.71389 51 55 64
0.5182 -0.563888 1.77362 226 224 224
0.519038 -0.582954 1.77123 220 218 219
0.619754 -0.579588 1.87237 237 229 238
0.600757 -0.57772 1.87055 205 206 209
0.537561 -0.6032 1.77438 173 169 175
0.540256 -0.661062 1.77139 34 37 48
0.601387 -0.577871 1.85078 237 231 239
0.577182 -0.58376 1.83068 124 126 129
0.591063 -0.619914 1.79846 226 215 223
0.53743 -0.782985 1.7524 182 182 185
0.518428 -0.52485 1.79471 234 232 232
0.667057 -0.651495 2.63903 189 194 190
-0.0206467 -0.381137 1.97317 247 238 247
-0.0311646 -0.382954 1.96523 243 233 243
-0.0341547 -0.391497 1.93872 246 237 247
-0.0219416 -0.391058 1.93643 246 236 246
-0.000795107 -0.387667 1.95357 237 226 233
-0.0337242 -0.472579 1.79981 250 241 251
-0.0196398 -0.469468 1.79455 251 241 251
-0.0184178 -0.476766 1.77743 252 242 252
0.0180566 -0.391163 1.95136 240 229 231
0.000277906 -0.469181 1.77525 251 242 252
0.0185049 -0.405152 1.87242 229 221 221
0.00692997 -0.471104 1.75939 254 245 253
0.0384838 -0.411594 1.85536 235 225 226
0.0239372 -0.45117 1.79595 252 243 253
0.0407765 -0.426021 1.85431 236 226 227
0.0613853 -0.425335 1.83531 239 229 230
0.0590253 -0.425043 1.81283 251 244 248
0.0608127 -0.447153 1.81488 245 236 239
0.062513 -0.430933 1.79699 253 248 251
0.0789411 -0.423267 1.85209 243 234 237
0.0797553 -0.425175 1.83346 238 229 229
0.0809331 -0.426338 1.81563 244 234 234
0.079298 -0.428939 1.7929 252 250 251
0.0986866 -0.424407 1.83181 241 233 235
0.0796699 -0.445281 1.75372 248 241 245
0.0997189 -0.439029 1.85319 241 233 234
0.100365 -0.427046 1.79334 250 240 240
0.0856621 -0.449908 1.73772 249 240 243
0.118846 -0.426393 1.81213 243 236 238
0.497043 -0.663092 2.97047 22 30 45
0.0991461 -0.462468 1.73311 236 231 230
0.53266 -0.620427 3.0701 12 18 37
0.499211 -0.683552 2.95259 114 116 123
0.104843 -0.451734 1.71825 252 250 251
0.118848 -0.443072 1.73197 252 252 252
0.13967 -0.429949 1.77562 235 229 225
0.198869 -0.423357 1.9522 228 217 213
0.140336 -0.437773 1.81182 244 236 238
0.126214 -0.432912 1.76184 253 242 242
0.159247 -0.438722 1.81233 239 231 237
0.134938 -0.432792 1.76011 253 243 243
0.113412 -0.455351 1.70493 252 251 252
0.138763 -0.440448 1.73238 253 249 251
0.159399 -0.445842 1.75532 236 231 224
0.179345 -0.440119 1.79209 241 235 234
0.1388 -0.45714 1.69007 245 237 236
0.158954 -0.440237 1.73287 253 248 248
0.178953 -0.442744 1.77155 238 232 229
0.199652 -0.441914 1.792 246 241 239
0.157557 -0.452024 1.69985 253 248 249
0.159514 -0.457289 1.68936 252 250 251
0.733486 -0.636177 3.004 53 58 71
0.198768 -0.442421 1.77169 243 238 237
0.177935 -0.449645 1.71367 252 252 251
0.638175 -0.723365 2.69063 63 67 73
0.218534 -0.443497 1.77228 241 237 236
0.179256 -0.459856 1.69255 252 252 251
0.680297 -0.721317 2.73298 140 141 146
0.193557 -0.45142 1.71835 252 252 250
0.178463 -0.468353 1.67297 252 251 249
0.218358 -0.448617 1.7545 243 241 239
0.425127 -0.535491 2.17519 225 220 230
0.237443 -0.449698 1.75557 235 233 230
0.219142 -0.465162 1.73414 238 234 231
0.480594 -0.558748 2.21219 224 220 227
0.200515 -0.477122 1.66933 252 252 250
0.519667 -0.57733 2.25723 214 212 219
0.480838 -0.560143 2.19167 224 221 227
0.478745 -0.558745 2.17162 224 221 227
0.55871 -0.597533 2.30389 200 198 208
0.461042 -0.554467 2.14854 220 218 218
0.238264 -0.470795 1.71835 240 238 233
0.218869 -0.483254 1.67308 252 252 251
0.522147 -0.577846 2.2116 234 228 237
0.232249 -0.472969 1.7011 252 252 250
0.599395 -0.596457 2.31285 32 35 46
0.255142 -0.471826 1.72076 238 238 232
0.236259 -0.488852 1.6771 252 252 252
0.508301 -0.580994 2.1417 233 229 239
0.520806 -0.585707 2.13675 235 232 231
0.239129 -0.509286 1.65901 245 242 235
0.484259 -0.556211 2.06511 229 223 234
0.978315 -0.734523 2.80927 211 210 218
0.957787 -0.733372 2.78699 214 212 221
0.969335 -0.734254 2.78403 214 212 221
0.99484 -0.734943 2.80318 213 211 220
0.980407 -0.734702 2.78029 209 207 216
0.959911 -0.735054 2.73138 196 196 201
1.00658 -0.735786 2.80011 210 208 217
0.976966 -0.73637 2.75426 190 190 195
0.84033 -0.735693 2.53057 85 88 91
0.578251 -0.5979 2.13145 234 233 230
1.02052 -0.736955 2.77094 209 207 214
0.981381 -0.737794 2.71069 205 204 210
0.839007 -0.736815 2.51081 91 92 98
0.99797 -0.737579 2.72759 208 206 212
1.03677 -0.737189 2.76739 203 201 206
1.01726 -0.740721 2.71715 192 193 196
0.585613 -0.606425 2.08143 235 229 238
0.596788 -0.617672 2.08722 231 230 230
0.54037 -0.574595 2.00887 248 242 251
0.560957 -0.580698 2.01113 229 228 231
0.719373 -0.607431 2.23265 74 78 82
0.584577 -0.595295 2.02915 233 228 239
0.961904 -0.754913 2.50812 220 220 226
0.737661 -0.62334 2.23252 86 91 96
0.56003 -0.579174 1.99283 220 220 222
0.977444 -0.755128 2.52344 224 222 232
0.919635 -0.758184 2.43283 152 156 161
0.725429 -0.679437 2.19057 214 210 216
0.600476 -0.596705 2.03278 215 215 217
1.04058 -0.753888 2.58723 211 213 221
1.02189 -0.761119 2.55112 214 216 220
0.982761 -0.760334 2.51253 219 219 224
0.57836 -0.584562 1.993 215 216 218
0.342994 -0.577608 1.66634 246 245 238
1.05771 -0.756571 2.58665 206 210 212
0.979734 -0.759285 2.49219 214 217 219
0.919246 -0.762232 2.41232 184 188 189
1.16014 -0.757482 2.70931 202 200 205
1.13763 -0.758585 2.67188 188 188 189
1.10198 -0.759935 2.62848 199 201 201
1.08064 -0.756383 2.60758 201 204 203
1.0199 -0.762096 2.51314 216 217 222
0.999403 -0.764029 2.4918 216 217 220
0.544441 -0.554679 1.93252 226 224 229
1.16031 -0.764507 2.67304 156 155 154
1.14229 -0.762639 2.65267 155 155 154
1.09921 -0.762054 2.6111 196 196 198
1.03933 -0.762184 2.53221 206 207 210
0.998823 -0.762463 2.47302 213 214 218
0.960402 -0.780794 2.43049 218 219 225
0.799595 -0.743723 2.23274 201 205 207
0.37747 -0.58442 1.69203 252 252 252
0.36694 -0.577944 1.68831 252 252 252
0.435688 -0.858438 1.56068 235 229 244
1.07837 -0.761839 2.57203 198 198 201
1.01937 -0.765029 2.49046 212 211 216
1.02063 -0.780277 2.47177 204 203 207
0.999518 -0.776808 2.47017 215 216 220
0.997746 -0.781152 2.45489 216 214 220
0.978655 -0.802171 2.42925 209 211 212
0.81278 -0.704916 2.23594 153 157 161
0.819646 -0.762664 2.23165 200 203 206
0.363014 -0.595657 1.668 241 239 234
1.20217 -0.779453 2.71228 147 146 144
1.12119 -0.764529 2.59298 160 158 160
1.04285 -0.779573 2.48902 189 189 192
0.962517 -0.820911 2.39113 212 211 217
0.918119 -0.816879 2.32861 113 114 118
0.822971 -0.776003 2.22733 213 215 220
0.498252 -0.505155 1.85264 224 225 224
0.381641 -0.581931 1.67066 220 217 207
0.381272 -0.602101 1.67087 232 231 229
1.16061 -0.780613 2.63178 136 134 134
1.0577 -0.762526 2.49423 180 178 182
1.03939 -0.784003 2.47329 179 179 181
1.01997 -0.785164 2.45459 194 193 198
1.00126 -0.803725 2.42916 198 198 202
0.997945 -0.801315 2.41234 205 202 209
0.98142 -0.817326 2.41001 192 192 194
0.979075 -0.821978 2.39294 213 211 218
0.498098 -0.50416 1.83218 230 230 230
1.077 -0.783832 2.51353 178 177 180
1.05822 -0.784294 2.49186 174 174 175
1.02217 -0.798879 2.45104 176 178 179
1.01634 -0.803227 2.4316 194 192 198
0.998163 -0.82081 2.41322 195 195 197
0.973103 -0.825179 2.37665 211 208 217
0.584106 -0.573831 1.93263 234 228 237
0.401148 -0.604663 1.71447 224 223 215
1.24875 -0.877145 2.69215 144 144 140
1.09812 -0.802211 2.53184 146 147 146
0.991471 -0.825145 2.38113 225 222 229
0.440746 -0.601374 1.75297 169 168 170
0.421259 -0.598464 1.72734 184 182 180
0.401232 -0.602732 1.67131 166 166 169
1.2988 -0.859084 2.73256 88 90 76
1.25918 -0.881675 2.6887 92 93 80
1.25653 -0.896126 2.66988 94 94 83
1.2449 -0.900244 2.66895 104 107 95
1.09986 -0.825133 2.51438 146 148 145
1.05763 -0.82022 2.45173 186 184 188
0.626504 -0.596136 1.95425 169 169 173
1.29585 -0.842454 2.72911 88 90 74
1.26328 -0.884258 2.67365 85 85 72
1.24449 -0.904785 2.65333 91 92 80
0.458162 -0.605186 1.73355 54 58 66
1.2727 -0.883446 2.6649 77 76 64
1.26322 -0.890526 2.65231 79 78 65
1.26075 -0.906288 2.63391 97 97 85
0.51889 -0.522694 1.81131 234 233 233
0.42043 -0.641358 1.6712 66 69 78
1.31264 -0.86154 2.69371 81 81 67
1.27928 -0.883787 2.65011 71 69 56
1.27705 -0.900453 2.64962 72 71 58
0.499473 -0.662229 1.77141 41 45 54
0.46232 -0.640785 1.7329 103 104 111
0.437601 -0.625017 1.69442 69 72 80
0.652942 -0.601555 1.95207 236 231 240
0.561184 -0.764204 1.81261 38 43 52
0.480788 -0.662522 1.7527 91 93 102
0.4407 -0.64176 1.69101 74 76 85
0.441796 -0.662144 1.69058 71 73 83
0.538396 -0.543481 1.79268 230 229 229
0.459697 -0.683055 1.69229 73 75 85
0.478375 -0.683843 1.69289 42 45 56
0.499045 -0.68208 1.71219 39 42 53
0.479837 -0.702576 1.69248 40 45 54
0.803909 -0.757263 2.22991 217 219 223
0.759425 -0.764662 2.13186 207 211 213
0.541155 -0.766302 1.75289 167 167 170
0.519278 -0.724345 1.73266 84 85 92
0.498495 -0.700129 1.71197 40 43 53
0.498652 -0.721363 1.71123 64 68 77
0.556036 -0.624729 1.79149 57 61 65
0.616397 -0.531228 2.98684 10 18 32
0.437873 -0.509681 2.21138 173 175 176
0.402451 -0.782316 1.5916 213 215 223
0.591154 -0.513145 2.08546 168 175 173
0.334198 -0.490334 1.69856 226 227 218
0.361286 -0.63014 1.70191 243 240 228
0.0202927 -0.444471 1.85405 227 218 224
0.114692 -0.331245 2.06621 232 224 231
0.133913 -0.33097 2.0734 242 234 241
0.403553 -0.629132 3.15099 17 22 37
0.424539 -0.605198 3.153 13 19 40
0.440117 -0.58926 3.14451 12 18 40
0.0985267 -0.442383 1.81086 232 223 219
0.429097 -0.7142 2.84031 212 210 217
0.440492 -0.714526 2.83336 202 202 205
0.498751 -0.64042 2.95321 20 27 48
0.48077 -0.714142 2.85297 191 190 194
0.477888 -0.715041 2.83419 173 175 174
0.499771 -0.71557 2.83466 190 190 192
0.137853 -0.440489 1.78978 240 232 229
0.139449 -0.46592 1.7536 237 232 230
0.539123 -0.714905 2.84618 185 186 187
0.540932 -0.716568 2.81652 188 188 190
0.537344 -0.716106 2.79364 181 182 182
0.52589 -0.719743 2.75781 186 187 189
0.559038 -0.716331 2.7909 176 178 177
0.557934 -0.717006 2.77035 148 149 150
0.15989 -0.467084 1.73568 230 226 219
0.599952 -0.715824 2.79202 170 171 171
0.60017 -0.717565 2.75362 122 125 127
0.563159 -0.71796 2.68607 193 193 196
0.60044 -0.718468 2.73235 75 79 83
0.600879 -0.724311 2.65357 149 151 155
0.598376 -0.729358 2.57496 218 216 225
0.800055 -0.735122 2.63056 151 151 157
0.819762 -0.737113 2.61253 119 120 125
0.740005 -0.65456 2.27351 78 81 89
0.799945 -0.689875 2.33554 195 200 201
0.558631 -0.541399 2.01248 216 216 217
0.615156 -0.562215 2.07443 136 136 141
0.820197 -0.689037 2.31804 38 39 52
0.829224 -0.68997 2.31545 38 39 53
0.637886 -0.589496 2.07256 86 89 97
0.801412 -0.739329 2.25139 173 178 181
0.819974 -0.741266 2.25025 176 180 182
0.505538 -0.535234 1.86768 254 248 253
0.958382 -0.806218 2.39463 214 213 219
0.860065 -0.759286 2.29092 193 197 199
0.502553 -0.537465 1.8497 246 243 244
0.499121 -0.541463 1.83272 246 241 242
1.23668 -0.787507 2.71235 128 127 122
1.19657 -0.783601 2.65278 127 126 121
1.17811 -0.78623 2.63294 130 128 126
0.882981 -0.804272 2.25274 168 170 171
1.25873 -0.863359 2.6934 94 95 83
1.24045 -0.863081 2.67499 97 98 86
1.29909 -0.819401 2.75077 84 74 54
1.27494 -0.8398 2.71298 100 100 89
0.363213 -0.601918 1.62919 224 223 223
1.2968 -0.800957 2.7328 86 68 47
1.29625 -0.803348 2.71425 84 73 57
1.27883 -0.819984 2.71264 93 93 81
1.28093 -0.826288 2.69416 92 91 78
0.378613 -0.602841 1.63332 195 193 195
1.29823 -0.76504 2.71565 98 76 51
1.27843 -0.844308 2.67249 80 78 65
0.481148 -0.64158 1.7707 119 118 125
0.455655 -0.604431 1.71445 52 57 65
1.27717 -0.8641 2.65581 72 71 57
0.397675 -0.602998 1.65393 167 165 168
1.29667 -0.800173 2.67159 67 62 51
0.457574 -0.643302 1.69468 45 49 59
0.417959 -0.643199 1.65362 68 71 81
0.402291 -0.662284 1.64776 48 52 63
1.27696 -0.880403 2.61677 75 73 64
0.518932 -0.722003 1.74978 53 55 66
0.481025 -0.682868 1.72992 61 64 74
0.45999 -0.701116 1.69274 82 83 93
0.419794 -0.662488 1.65197 75 77 88
0.420464 -0.682404 1.6519 68 71 81
0.517797 -0.622189 1.75554 39 43 52
0.499608 -0.762736 1.7115 179 181 187
0.441137 -0.702672 1.67091 59 62 73
0.65504 -0.595219 1.92209 245 239 250
0.498028 -0.78287 1.70975 163 163 171
0.47849 -0.743644 1.6905 154 156 164
0.462464 -0.744343 1.67242 143 146 155
0.518201 -0.6438 1.75296 28 33 42
0.62924 -0.590882 1.85736 244 235 247
0.401272 -0.620671 1.73242 225 224 212
0.799669 -0.681972 2.51368 196 203 199
0.615999 -0.549444 3.10963 11 17 32
0.0447063 -0.351547 2.12657 234 228 237
0.100639 -0.352706 2.12851 227 218 224
0.138012 -0.35072 2.10982 228 220 225
0.406382 -0.664228 3.17361 49 54 62
0.420638 -0.622996 3.15344 14 21 38
0.419699 -0.642763 3.13466 18 24 41
0.117325 -0.439528 1.80984 237 229 227
0.49763 -0.686159 2.89178 169 170 171
0.453619 -0.528129 2.25061 192 193 198
0.438419 -0.506889 2.19159 166 168 171
0.416526 -0.488976 2.13491 194 195 197
0.418217 -0.49073 2.07341 204 205 205
0.498494 -0.526797 2.1906 177 179 181
0.417556 -0.490893 2.05178 203 204 204
0.518105 -0.521288 2.21213 41 46 53
0.479134 -0.504287 2.13031 142 145 148
0.519849 -0.524233 2.1924 71 75 82
0.477295 -0.502644 2.11199 187 189 192
0.520829 -0.522247 2.16996 84 87 95
0.298126 -0.465448 1.77243 214 214 208
0.479385 -0.503257 2.09325 215 216 217
0.558583 -0.520478 2.19179 44 48 54
0.538929 -0.522886 2.15579 112 115 121
0.574516 -0.521453 2.20666 74 79 84
0.539094 -0.523971 2.13128 172 174 175
0.3181 -0.485072 1.75332 212 212 205
0.55865 -0.528538 2.13342 172 173 176
0.259009 -0.563494 1.63231 254 246 246
0.596787 -0.525253 2.18556 133 139 139
0.538609 -0.526407 2.09207 221 220 221
0.247048 -0.579851 1.62184 253 245 244
0.580098 -0.523399 2.13555 68 72 78
0.558339 -0.525774 2.09266 222 221 223
0.598262 -0.541647 2.17095 72 77 83
0.598627 -0.541135 2.1508 97 101 105
0.279219 -0.576743 1.62506 255 246 247
0.278803 -0.58676 1.61882 254 246 246
0.283776 -0.596199 1.61489 254 246 245
0.299415 -0.580587 1.62635 254 246 246
0.296895 -0.590469 1.62089 255 245 245
0.617427 -0.544551 2.05349 42 47 54
0.318226 -0.605341 1.61906 254 245 245
0.322342 -0.619826 1.61504 255 245 244
0.617568 -0.5641 2.03358 76 79 88
0.577974 -0.541864 1.97215 134 137 141
0.537807 -0.52463 1.91325 212 214 214
0.93686 -0.78689 2.39792 220 221 226
0.340028 -0.601451 1.62702 254 246 246
0.345109 -0.601546 1.60715 218 216 217
1.21936 -0.747893 2.7361 129 130 124
0.578464 -0.542661 1.93417 142 144 148
0.98161 -0.785589 2.41083 198 199 202
0.896417 -0.816532 2.29312 123 123 127
0.363246 -0.621402 1.62667 210 207 209
0.361912 -0.64218 1.61028 72 75 84
0.381745 -0.60282 1.64963 206 205 205
1.28398 -0.844476 2.73145 97 99 87
1.22157 -0.844464 2.67077 100 103 90
1.21474 -0.850567 2.65567 100 101 88
0.498446 -0.662422 1.79031 48 52 59
0.478941 -0.602796 1.75323 87 90 94
0.3666 -0.641913 1.62593 70 72 78
0.362908 -0.659497 1.60884 45 49 62
1.26275 -0.847339 2.69569 94 94 82
1.26014 -0.849905 2.67094 83 82 69
1.21818 -0.862996 2.649 97 100 87
1.21931 -0.868557 2.63711 91 93 81
0.382135 -0.642223 1.63042 67 70 79
1.25988 -0.852908 2.65755 79 76 67
0.399742 -0.622482 1.65177 89 91 98
0.396039 -0.624222 1.63583 145 144 151
0.51876 -0.702784 1.7738 45 49 59
0.435712 -0.623456 1.67396 100 101 110
0.399862 -0.683325 1.63117 80 82 93
1.29725 -0.842974 2.67258 76 74 61
1.28047 -0.849461 2.65422 74 71 58
1.25291 -0.87756 2.62468 74 71 59
1.31667 -0.830173 2.69089 82 79 67
1.29545 -0.844183 2.64969 88 85 74
0.438905 -0.662466 1.67222 61 63 74
0.438931 -0.664308 1.65254 49 52 64
0.418181 -0.664649 1.63312 47 50 61
1.29903 -0.828461 2.64713 72 70 58
0.737683 -0.766279 2.07366 200 204 206
0.458969 -0.684142 1.67205 40 44 54
0.43803 -0.683068 1.65319 56 59 69
0.437808 -0.742224 1.63561 207 210 219
0.476827 -0.743278 1.67472 184 186 193
0.459284 -0.722145 1.67271 124 128 137
0.457738 -0.724182 1.65591 167 170 178
0.456144 -0.74227 1.65413 161 162 172
0.456019 -0.763923 1.65433 186 189 197
0.571852 -0.566661 1.79954 223 217 225
0.532852 -0.719766 1.71318 102 98 99
0.538582 -0.52389 1.85324 230 230 230
0.534524 -0.799019 1.77068 26 30 39
0.740437 -0.665279 2.65346 188 193 190
0.419294 -0.618546 3.18773 12 20 36
0.506678 -0.552161 3.11261 10 20 33
0.519642 -0.683997 2.8937 166 166 169
0.407102 -0.535295 2.23497 229 225 233
0.519692 -0.579603 2.29212 169 170 177
0.540756 -0.580062 2.25067 183 186 188
0.558508 -0.585817 2.27133 184 184 187
0.604007 -0.597095 2.21492 232 226 233
0.602304 -0.596709 2.19574 234 228 235
0.818122 -0.70226 2.37398 205 211 210
0.720809 -0.637601 2.2452 235 229 238
0.257652 -0.594677 1.56518 242 234 240
0.280172 -0.576452 1.58593 249 240 238
0.402232 -0.579772 1.7488 231 228 221
0.959062 -0.745767 2.43305 202 204 207
0.325206 -0.575268 1.60467 248 240 236
0.307791 -0.595759 1.58551 255 244 244
0.795599 -0.692806 2.22293 26 27 39
0.323397 -0.600976 1.58701 230 227 227
0.3202 -0.622387 1.57184 224 221 223
0.904729 -0.805285 2.31254 202 201 205
0.339188 -0.603174 1.59228 222 219 221
0.326445 -0.618171 1.58489 218 216 218
0.339851 -0.622998 1.59084 198 197 200
1.07713 -0.74929 2.51928 176 174 178
0.938782 -0.804607 2.32993 190 190 195
0.498859 -0.525037 1.79471 233 232 231
0.993346 -0.765269 2.397 189 186 193
0.290618 -0.412753 1.99127 211 211 211
0.892263 -0.813489 2.25864 234 234 244
0.613251 -0.567912 1.95734 171 172 177
0.978353 -0.796515 2.35884 132 132 130
1.3016 -0.865121 2.71567 81 81 69
0.517756 -0.682874 1.77241 38 41 53
0.500215 -0.68281 1.77103 45 49 58
1.32598 -0.762744 2.75181 118 90 63
1.31869 -0.783734 2.75689 99 76 50
0.379269 -0.682409 1.5916 73 76 87
1.33218 -0.795915 2.74689 96 72 48
1.32924 -0.817931 2.7397 68 59 42
1.31227 -0.863015 2.71183 79 80 66
0.398046 -0.663546 1.61292 56 60 71
0.399662 -0.683351 1.61217 55 59 70
1.33928 -0.796974 2.73719 97 80 63
0.459114 -0.664026 1.67314 36 39 50
0.463232 -0.762261 1.67176 195 197 205
0.442374 -0.742757 1.65011 180 183 192
0.461524 -0.781805 1.66992 204 206 213
0.443673 -0.781646 1.64965 212 213 221
0.422661 -0.743993 1.62983 161 164 172
1.33991 -0.806428 2.71738 71 58 45
0.521034 -0.765417 1.73208 101 103 111
0.518487 -0.801609 1.73143 151 151 159
0.440235 -0.806719 1.63238 202 203 211
0.537996 -0.763266 1.73401 78 77 87
0.536799 -0.721144 1.75156 39 42 51
0.52111 -0.802184 1.7141 131 131 141
0.558175 -0.719232 1.75044 89 90 95
0.554696 -0.763824 1.73195 44 45 59
0.42981 -0.894007 1.60107 186 186 193
0.0777308 -0.404561 1.89302 112 109 117
0.0791569 -0.410057 1.85327 238 229 234
0.0982356 -0.405542 1.8713 78 77 90
0.0979403 -0.409469 1.85226 158 153 162
0.12091 -0.40894 1.85218 51 54 67
0.122603 -0.41188 1.83557 51 54 65
0.140459 -0.408453 1.85276 71 73 80
0.159614 -0.423924 1.85187 53 56 66
0.996895 -0.709631 2.53177 201 208 204
0.178897 -0.422815 1.83172 133 133 136
0.179157 -0.42317 1.81243 212 210 213
0.199736 -0.421878 1.83228 216 213 216
0.199095 -0.422768 1.81259 224 222 225
0.218112 -0.423438 1.83201 217 214 212
0.324285 -0.476429 2.09539 226 222 226
0.140684 -0.568561 1.59697 249 240 248
0.159389 -0.528804 1.6361 252 243 248
0.181241 -0.529158 1.63655 244 234 234
0.619371 -0.691226 2.53691 33 37 45
0.199762 -0.549768 1.59837 249 239 246
0.679079 -0.622244 2.09268 46 51 57
0.282428 -0.619831 1.54591 230 229 230
0.920604 -0.781554 2.39463 190 194 196
0.300384 -0.621947 1.55061 229 227 228
0.927935 -0.8007 2.39234 216 218 221
0.73785 -0.684026 2.13285 172 175 179
0.440223 -0.623045 1.75433 112 114 119
0.673668 -0.620115 2.03939 206 205 212
1.15999 -0.785818 2.61346 135 133 132
1.03392 -0.806929 2.44081 197 195 200
0.523246 -0.682066 1.78917 27 32 42
1.23193 -0.843888 2.68055 103 103 93
1.08917 -0.796717 2.49584 150 148 146
1.03822 -0.822929 2.43283 184 184 185
1.25387 -0.825063 2.70109 104 107 92
0.462958 -0.683835 1.71031 54 57 67
0.423022 -0.660911 1.66895 56 60 70
0.361744 -0.70096 1.57003 62 65 77
1.23854 -0.907971 2.63817 87 88 75
0.534331 -0.740042 1.77629 75 78 88
0.498472 -0.721896 1.73376 67 69 80
0.399368 -0.703708 1.61247 89 91 102
1.27745 -0.864454 2.67429 78 76 63
0.499374 -0.743 1.73436 36 40 52
0.4794 -0.722633 1.71313 51 54 65
0.399242 -0.742711 1.59237 174 177 187
0.516188 -0.822754 1.73184 190 190 196
0.479096 -0.764624 1.69147 159 161 170
0.440901 -0.723336 1.64791 132 135 144
0.418988 -0.762808 1.61222 205 208 216
1.30173 -0.829037 2.67578 88 86 74
0.413503 -0.802884 1.57354 220 219 227
0.73988 -0.665483 2.57262 194 200 197
0.294889 -0.863104 1.41623 195 196 202
-0.0328114 -0.615734 1.67188 208 201 220
0.114471 -0.352507 2.12652 223 214 218
0.138609 -0.351708 2.12724 225 217 222
0.133747 -0.473569 1.94508 53 56 70
0.482102 -0.569324 3.15199 11 17 35
0.196601 -0.372198 1.98215 233 225 230
0.600272 -0.715091 2.63165 32 36 41
0.55873 -0.547802 2.15129 167 169 171
0.59853 -0.564768 2.17204 190 191 192
0.943769 -0.733977 2.71063 190 191 194
0.926332 -0.753655 2.58493 209 207 214
0.941816 -0.754539 2.59004 210 210 216
0.659558 -0.583893 2.15355 60 65 70
0.695667 -0.571752 2.1702 34 36 46
0.657391 -0.583577 2.11219 39 44 52
0.457697 -0.488925 1.81793 242 237 239
0.691451 -0.572642 2.15736 36 37 49
0.657724 -0.585027 2.09274 33 39 47
0.67741 -0.584739 2.11251 43 47 55
0.679617 -0.602263 2.0925 62 68 72
0.658696 -0.599494 2.05092 52 57 62
0.674478 -0.624468 2.053 173 175 179
0.617704 -0.566751 1.99234 80 83 90
1.15911 -0.760724 2.69205 162 163 161
1.06664 -0.775012 2.56954 201 203 204
1.05545 -0.78007 2.55148 204 206 207
1.03883 -0.78683 2.51328 193 195 195
1.09719 -0.777321 2.57308 175 174 175
1.11197 -0.775062 2.59167 157 156 158
1.08249 -0.779861 2.55022 179 181 181
1.17859 -0.783963 2.67315 143 142 141
1.06714 -0.797782 2.51108 189 187 191
1.05947 -0.802861 2.4923 180 180 182
1.04181 -0.802737 2.47247 179 180 181
1.03982 -0.824298 2.45351 185 185 187
0.395704 -0.918741 1.59361 217 215 229
0.597799 -0.544442 1.91058 119 121 127
0.558751 -0.522934 1.8526 218 218 220
1.28111 -0.817851 2.74298 94 87 77
1.24094 -0.84285 2.6953 100 102 90
1.0531 -0.835352 2.45353 178 177 177
0.424308 -0.865772 1.61536 174 174 182
1.22335 -0.879387 2.64672 99 104 87
1.11945 -0.844016 2.53334 140 142 134
1.10224 -0.840606 2.50866 161 161 159
0.499531 -0.602348 1.75431 130 131 133
0.558676 -0.523782 1.83218 224 224 225
0.595485 -0.543475 1.87368 174 175 178
0.517629 -0.602633 1.75474 104 105 110
0.5954 -0.544221 1.85265 228 223 228
0.536732 -0.544637 1.77463 231 227 230
0.556374 -0.543627 1.79504 221 217 221
0.575059 -0.544332 1.81556 220 215 220
0.591882 -0.54228 1.8384 231 225 231
0.592445 -0.566179 1.82263 214 208 217
0.555059 -0.584008 1.77354 199 194 198
0.570727 -0.591879 1.7827 184 176 181
-0.0197534 -0.627562 1.63925 209 202 221
-0.0117657 -0.633956 1.63584 213 206 225
0.0802741 -0.622454 1.57593 221 214 230
0.102804 -0.629713 1.56093 225 218 233
0.660323 -0.649263 2.47448 169 174 174
0.438877 -0.560449 1.80963 221 216 210
0.734562 -0.60744 2.21479 69 74 80
0.428916 -0.594293 1.76803 238 231 232
0.717151 -0.624236 2.17275 75 80 85
0.720169 -0.638866 2.17009 66 70 76
0.859 -0.706639 2.35567 196 201 200
0.73184 -0.652174 2.16061 35 37 46
0.736702 -0.665574 2.15574 48 52 58
0.466425 -0.621432 1.79365 98 98 101
0.299648 -0.743193 1.45236 219 220 229
0.302001 -0.720484 1.50978 227 227 237
0.283696 -0.721434 1.49144 227 227 236
0.320675 -0.742261 1.53192 191 189 201
0.319944 -0.742655 1.51244 224 225 234
0.597676 -0.542893 1.92996 76 79 86
0.97928 -0.780762 2.39142 184 185 187
0.361257 -0.742155 1.55033 195 197 206
0.339579 -0.763714 1.55058 218 219 229
0.321208 -0.74219 1.49161 218 220 228
0.974704 -0.795679 2.3725 183 182 185
0.442623 -0.679623 1.69038 40 44 54
0.362192 -0.760585 1.54875 223 223 233
0.379677 -0.723212 1.57368 115 119 129
0.376427 -0.743864 1.55338 147 148 159
0.361399 -0.782999 1.53223 224 223 234
1.13603 -0.825234 2.55395 119 123 110
0.611641 -0.551399 1.91444 132 136 140
0.359966 -0.781811 1.55151 222 222 232
0.356824 -0.781391 1.5129 212 214 222
0.339916 -0.783932 1.49288 210 211 220
0.57651 -0.525761 1.85227 206 207 209
0.537836 -0.526192 1.79547 230 229 229
0.396101 -0.762666 1.5753 149 150 162
0.380962 -0.782589 1.55124 216 217 226
0.375902 -0.784356 1.53576 219 219 228
0.361568 -0.800296 1.52918 222 221 232
0.556245 -0.524716 1.81345 222 221 223
0.517865 -0.584043 1.75599 199 196 198
0.418343 -0.742337 1.61195 189 192 201
0.414628 -0.744882 1.59752 84 84 98
0.377522 -0.803775 1.53523 225 223 234
0.496917 -0.68352 1.69379 35 38 47
0.395573 -0.784695 1.55648 211 209 220
0.397664 -0.804711 1.55395 224 222 233
0.377983 -0.821826 1.53158 216 215 225
0.375729 -0.821749 1.51786 228 225 237
0.360535 -0.824401 1.51293 218 216 226
0.571755 -0.528606 1.82135 228 224 229
0.457768 -0.706501 1.63589 155 149 157
0.431704 -0.763853 1.61407 179 179 189
0.429919 -0.764384 1.59425 140 139 149
0.412431 -0.779172 1.56961 144 142 155
0.378347 -0.843568 1.51534 234 229 242
0.538008 -0.66271 1.752 40 44 52
0.534444 -0.664833 1.73683 37 41 49
0.516719 -0.683316 1.71428 56 58 66
0.473621 -0.68234 1.6584 37 39 46
0.477105 -0.701201 1.65632 97 94 101
0.450779 -0.739036 1.62246 226 224 233
0.410647 -0.800999 1.55941 231 228 239
0.513503 -0.684938 1.69708 52 52 60
0.493201 -0.685962 1.67609 95 90 93
0.414802 -0.82466 1.55454 233 229 242
0.398111 -0.863342 1.51738 230 226 239
0.378341 -0.861444 1.51357 226 222 235
0.532572 -0.684614 1.71826 46 45 55
0.411638 -0.845187 1.53734 238 233 247
0.397729 -0.882179 1.51261 229 222 235
0.422779 -0.884272 1.53746 228 223 235
0.414025 -0.89814 1.51727 223 215 225
0.358279 -0.802487 1.49565 210 210 218
0.499251 -0.542419 1.93635 222 222 222
0.402553 -0.896268 1.5136 227 222 234
0.857864 -0.743037 2.27316 205 209 210
0.838331 -0.74271 2.31195 195 202 202
0.307715 -0.596877 1.6475 246 246 241
0.082398 -0.458016 2.03051 234 223 226
0.0948709 -0.454202 2.05077 231 221 218
0.0982066 -0.459329 2.01162 238 229 232
0.466841 -0.571012 3.13027 11 17 34
0.597971 -0.55026 3.11224 10 17 31
0.787131 -0.81694 2.15362 210 213 214
0.238717 -0.721307 1.49465 239 235 246
0.254618 -0.725443 1.49864 242 237 249
0.69976 -0.623335 2.15264 46 51 59
0.267061 -0.729535 1.5047 240 236 247
0.281918 -0.743311 1.51011 242 237 250
0.274823 -0.747819 1.49628 242 238 249
0.714597 -0.607246 2.17324 116 120 124
0.698297 -0.624197 2.13392 58 64 68
0.71671 -0.62447 2.15412 82 87 92
0.300662 -0.719093 1.53118 173 173 184
0.713127 -0.637252 2.12896 48 52 59
0.301025 -0.781803 1.49344 232 231 240
0.480343 -0.584293 1.75618 160 161 162
0.31673 -0.781138 1.49558 226 226 235
0.499344 -0.525943 1.77656 238 233 234
0.317535 -0.802945 1.49734 236 233 244
1.21303 -0.745066 2.71322 130 129 125
1.10968 -0.748578 2.57542 149 147 148
0.4998 -0.564907 1.75717 223 218 220
0.499347 -0.584668 1.75565 203 202 203
0.323229 -0.81755 1.49507 237 234 244
0.498323 -0.641742 1.73302 28 33 42
0.478314 -0.645043 1.71379 28 32 42
0.397098 -0.684025 1.59378 109 113 122
1.21954 -0.763979 2.69132 117 120 109
0.913183 -0.767125 2.27775 161 161 161
0.498884 -0.625062 1.73346 27 31 40
0.478991 -0.662387 1.69201 31 34 45
0.344071 -0.81826 1.51318 226 225 235
0.498851 -0.644934 1.71356 29 33 43
0.396188 -0.723745 1.5739 77 78 89
0.373427 -0.76745 1.53512 218 218 227
0.345076 -0.844511 1.49116 204 203 212
1.27963 -0.804415 2.73422 82 75 57
0.614601 -0.551323 1.88931 221 219 223
0.51874 -0.564585 1.7567 223 218 221
0.417237 -0.703288 1.59726 132 132 143
0.362334 -0.841532 1.50961 213 213 221
0.478422 -0.64404 1.69408 26 32 40
0.476966 -0.663651 1.67475 34 36 47
0.437302 -0.681493 1.63438 87 91 100
0.434112 -0.682276 1.61825 133 133 143
0.393257 -0.742951 1.557 126 126 137
1.28079 -0.8227 2.67172 74 73 57
0.554318 -0.529149 1.7976 219 217 221
0.51727 -0.643857 1.7174 44 44 54
0.496562 -0.64901 1.69669 42 43 54
0.453811 -0.667211 1.6372 42 42 55
0.370322 -0.866457 1.50192 239 233 247
0.534961 -0.564145 1.75745 228 222 226
0.495278 -0.664665 1.69606 38 41 49
0.410014 -0.784111 1.56038 232 231 242
0.551797 -0.54301 1.77816 226 220 226
0.534108 -0.627933 1.73598 37 38 48
0.473901 -0.660459 1.65805 80 76 80
0.435043 -0.830049 1.5949 220 219 227
0.405091 -0.876156 1.52859 230 226 239
0.385535 -0.892913 1.50126 241 236 250
0.533797 -0.642697 1.7316 62 61 70
0.436805 -0.854822 1.565 233 228 242
0.429624 -0.880185 1.55111 235 230 244
0.778424 -0.666896 2.73273 183 189 185
0.321471 -0.488371 1.69197 230 231 222
0.653127 -0.565193 2.03814 32 37 42
0.780764 -0.736403 2.23102 207 212 214
0.0882592 -0.412173 1.84228 239 231 236
0.236675 -0.408063 2.14962 199 197 199
0.259937 -0.43106 2.18561 210 206 209
0.0591226 -0.719908 1.58826 216 210 224
0.579914 -0.551838 3.12736 9 17 32
0.0798288 -0.717591 1.58759 218 212 227
0.0988828 -0.71845 1.58907 220 215 229
0.119834 -0.720546 1.59013 220 215 230
0.378344 -0.485503 2.21127 193 194 195
0.118496 -0.725433 1.57258 218 213 228
0.134111 -0.72145 1.56985 219 214 228
0.163223 -0.735706 1.58425 223 217 232
0.179041 -0.731262 1.57979 220 215 229
0.73682 -0.683433 2.55453 177 183 181
0.76037 -0.67977 2.49151 182 189 187
0.41935 -0.486538 1.81446 235 234 231
0.437977 -0.489031 1.81755 237 235 234
0.45863 -0.509088 1.79752 238 236 233
0.478867 -0.506286 1.79531 239 235 235
0.501251 -0.544683 1.7587 232 224 228
0.480729 -0.701352 1.73194 65 67 77
0.457879 -0.761577 1.69175 42 47 55
0.43818 -0.744242 1.66981 45 49 59
0.538369 -0.508596 1.815 230 229 230
0.519124 -0.681118 1.75351 29 33 43
0.49902 -0.782757 1.73259 76 80 87
1.26324 -0.81951 2.72458 99 101 87
0.594059 -0.529565 1.87321 229 227 231
0.508295 -0.532098 1.7625 239 231 236
0.496833 -0.586623 1.74 181 180 181
0.498621 -0.604278 1.73476 35 40 47
0.476235 -0.761974 1.67322 148 150 159
0.49391 -0.769945 1.68247 46 47 61
0.454718 -0.735019 1.63515 174 173 183
0.515626 -0.570998 1.74083 195 188 194
0.533463 -0.541137 1.75884 237 231 235
1.25868 -0.870116 2.61931 66 64 51
0.698765 -0.684257 2.79255 167 173 170
0.612535 -0.530499 2.13195 198 205 203
0.453857 -0.817471 1.61929 222 220 230
0.621757 -0.596433 1.93775 30 35 40
0.346468 -0.598826 1.72518 244 241 232
-0.0232131 -0.718377 1.62633 211 205 219
0.023044 -0.726927 1.59988 211 206 221
0.020055 -0.736788 1.59742 209 204 218
0.0401978 -0.724352 1.5944 212 207 221
0.559372 -0.596812 3.05194 15 23 38
0.506176 -0.713416 2.7546 186 186 186
0.499138 -0.71346 2.73436 184 184 184
0.618232 -0.680286 2.95291 79 84 94
0.538775 -0.713825 2.68892 190 189 190
0.714216 -0.621942 3.01652 19 24 37
0.466264 -0.716998 1.73889 73 76 87
0.176595 -0.723489 1.54655 223 219 231
0.18823 -0.716739 1.54222 232 228 239
0.659088 -0.657296 2.47358 141 146 147
0.677058 -0.662764 2.43331 164 168 168
0.719694 -0.667541 2.4916 189 195 193
0.717576 -0.668931 2.43178 180 186 184
0.738188 -0.669751 2.47304 172 178 177
0.57511 -0.679254 1.81123 65 69 73
0.837139 -0.690459 2.33772 32 37 45
0.879605 -0.746552 2.37473 199 204 205
0.433044 -0.566686 1.71714 86 90 95
0.654758 -0.609852 2.01785 135 139 142
1.1599 -0.707889 2.71353 125 127 124
0.458108 -0.62659 1.69429 31 36 45
0.45769 -0.645739 1.67359 30 34 44
0.437904 -0.646121 1.65395 33 38 48
0.355882 -0.724644 1.53489 204 205 215
0.416703 -0.646956 1.61467 41 43 56
1.22308 -0.801272 2.70781 129 126 127
1.2601 -0.860429 2.70823 98 100 87
1.2404 -0.880015 2.67349 96 98 85
0.373483 -0.748554 1.53568 219 218 228
1.26025 -0.785272 2.71386 102 95 76
0.411616 -0.664007 1.59737 109 110 120
0.415087 -0.683951 1.59797 150 150 160
1.21681 -0.764834 2.65115 100 94 76
0.455661 -0.649036 1.63785 53 52 61
0.57135 -0.709729 1.75741 145 129 124
0.174173 -0.391596 2.16934 233 225 228
0.584786 -0.531014 3.03589 11 15 30
0.619793 -0.530897 3.03164 14 20 32
0.647934 -0.548554 3.07303 12 17 32
0.105718 -0.714174 1.51279 213 209 220
0.125799 -0.718555 1.50157 215 211 222
0.157489 -0.715905 1.50511 221 216 229
0.674266 -0.720251 2.55959 29 31 39
0.166458 -0.735339 1.48154 226 222 233
0.181058 -0.735854 1.48366 225 222 233
0.7016 -0.714925 2.53114 111 114 122
0.720367 -0.715848 2.52855 84 87 95
0.198451 -0.723758 1.49149 228 225 236
0.218136 -0.723214 1.49059 232 228 240
0.820483 -0.702536 2.41297 144 150 151
0.288469 -0.714994 1.52259 226 221 235
0.324527 -0.721451 1.54884 159 163 174
0.371711 -0.904346 1.56784 216 215 224
0.368714 -0.907529 1.56323 223 222 232
0.381406 -0.804761 1.56964 216 216 225
0.38484 -0.927177 1.57359 215 215 223
0.363054 -0.922316 1.55077 211 210 218
0.35938 -0.92829 1.53813 239 235 247
0.417046 -0.664744 1.61498 65 69 79
0.81643 -0.712691 2.1743 203 203 210
1.20459 -0.79823 2.69089 117 115 115
1.17944 -0.799637 2.65189 135 133 133
1.23889 -0.86418 2.68795 97 101 88
0.739882 -0.684513 2.65326 183 190 187
0.327338 -0.880095 1.46887 188 188 195
0.374526 -0.467163 2.15214 193 194 195
0.256134 -0.450854 1.75838 220 220 214
0.316203 -0.46923 1.79206 211 210 204
0.295746 -0.469536 1.75516 214 214 208
0.31547 -0.470229 1.77558 212 212 205
0.159182 -0.716017 1.44812 218 216 226
0.336932 -0.487735 1.75393 214 214 207
0.197798 -0.716161 1.44574 227 225 235
0.925252 -0.733881 2.80121 176 177 179
0.435725 -0.558224 1.8333 220 216 211
0.67831 -0.585025 2.19387 99 103 104
0.24177 -0.716608 1.44934 231 230 239
0.239212 -0.72308 1.43307 229 229 238
0.259503 -0.720522 1.44986 227 228 236
0.241352 -0.742532 1.41072 229 228 237
0.260381 -0.722402 1.43181 226 226 235
0.829872 -0.825134 2.17791 181 183 183
0.48195 -0.630544 1.8051 133 133 134
0.26042 -0.741578 1.42981 226 227 235
0.839363 -0.705633 2.35354 193 199 198
0.280523 -0.721085 1.45124 223 224 232
0.260456 -0.761809 1.41177 223 223 232
0.486281 -0.679899 1.76753 63 68 77
0.462708 -0.683642 1.73372 71 74 84
0.462399 -0.70227 1.73425 65 69 79
0.42729 -0.722083 1.66636 89 90 99
0.406838 -0.698222 1.64574 67 70 82
0.480652 -0.702331 1.75289 33 37 47
0.482838 -0.741291 1.72842 29 33 44
0.279533 -0.763705 1.4122 220 220 229
0.298995 -0.722317 1.47244 221 223 231
0.295276 -0.744582 1.43548 224 223 232
0.316968 -0.723923 1.49387 221 222 230
0.281866 -0.781902 1.42981 213 216 223
0.354509 -0.74476 1.51449 221 220 231
0.31785 -0.743314 1.47332 219 220 228
0.298948 -0.782405 1.4336 216 217 225
0.278944 -0.802395 1.41358 208 210 217
0.500021 -0.701521 1.69265 75 77 83
0.455721 -0.787115 1.63744 212 212 222
0.372127 -0.768542 1.51958 230 227 239
0.353975 -0.766926 1.49468 228 226 236
0.335406 -0.763357 1.47343 221 220 230
0.316243 -0.783268 1.45319 213 214 222
0.314502 -0.782855 1.43528 229 227 237
0.519268 -0.701804 1.71252 88 88 92
0.420353 -0.839808 1.5743 216 216 225
0.373891 -0.784441 1.516 222 221 231
0.338087 -0.784012 1.47396 213 213 222
0.320192 -0.826537 1.43101 216 215 224
0.371743 -0.805103 1.49769 219 217 228
0.335881 -0.804737 1.47658 206 206 214
0.336265 -0.798507 1.45425 226 224 235
0.317258 -0.843514 1.41507 216 212 221
0.555886 -0.651318 1.76147 47 45 51
0.392422 -0.827628 1.52003 219 217 227
0.357239 -0.825663 1.47414 215 213 223
0.338585 -0.82698 1.45184 215 214 223
0.318401 -0.86417 1.41415 209 208 216
0.36699 -0.834633 1.4753 218 215 225
0.319155 -0.876332 1.41126 210 209 217
0.353823 -0.8708 1.44667 213 205 214
0.463995 -0.569776 3.02196 12 15 32
0.454599 -0.654902 3.01358 133 138 139
0.469102 -0.609902 2.90468 21 25 39
0.505038 -0.567563 2.97745 9 18 31
0.521469 -0.547173 2.98199 8 16 30
0.539119 -0.550774 2.92115 13 20 36
0.360297 -0.485851 2.23121 191 194 193
0.374929 -0.488806 2.23001 193 195 195
0.517073 -0.671479 2.6859 164 167 164
0.676854 -0.573206 2.93828 10 17 33
0.934611 -0.799791 2.30007 100 103 96
0.659112 -0.6822 2.83304 162 167 165
0.638441 -0.683273 2.77459 169 175 171
0.617698 -0.687645 2.73302 169 174 171
0.598102 -0.684631 2.68805 166 170 168
0.638686 -0.686406 2.75259 167 173 169
0.484505 -0.551161 2.2817 163 167 172
0.139572 -0.71514 1.45247 213 212 222
0.164045 -0.721151 1.4397 217 215 225
0.318746 -0.486678 1.71478 222 222 214
0.180606 -0.721961 1.43516 220 218 228
0.598427 -0.591084 2.27837 72 76 80
0.619188 -0.569141 2.19706 168 171 172
0.203579 -0.726171 1.41615 223 223 232
1.01813 -0.701608 2.81371 169 174 173
0.998588 -0.701079 2.79448 170 176 174
0.21998 -0.722931 1.41179 223 224 233
0.675366 -0.585388 2.20911 101 105 107
1.03976 -0.703696 2.79346 172 178 176
1.03909 -0.700894 2.77381 173 179 176
1.05825 -0.701032 2.79337 167 173 172
1.08076 -0.70134 2.75304 169 175 172
0.24177 -0.760936 1.3936 217 219 227
1.11903 -0.703904 2.75234 155 161 159
0.899594 -0.760924 2.41018 213 217 218
0.24024 -0.742126 1.39258 217 219 227
0.260029 -0.762966 1.39302 218 219 228
0.444783 -0.700339 1.68804 32 36 47
0.27709 -0.783456 1.39438 217 218 226
0.457912 -0.781808 1.65383 203 205 214
0.455229 -0.805616 1.63664 200 202 210
0.432424 -0.808862 1.59899 220 218 227
0.417075 -0.80337 1.5929 208 210 217
0.295983 -0.824436 1.39583 217 216 225
0.458225 -0.820597 1.63573 211 211 220
0.298212 -0.847644 1.39334 208 207 215
0.348412 -0.87338 1.44166 212 207 213
0.00325575 -0.661809 1.55202 212 210 222
0.135453 -0.412975 1.82212 50 55 62
0.158922 -0.406615 1.85234 212 208 208
0.0199283 -0.661005 1.51243 210 209 219
0.0210229 -0.660172 1.494 209 208 218
