ply
format ascii 1.0
comment Created by Open3D
element vertex 1247
property double x
property double y
property double z
property uchar red
property uchar green
property uchar blue
end_header
-1.23976 0.135986 0.733113 225 221 215
-1.35788 0.636022 0.431359 145 139 123
-1.30287 -0.384167 0.534002 184 186 189
-1.38009 0.13673 0.611579 150 138 143
-1.36206 0.499179 0.512881 61 67 73
-1.23387 0.620338 0.824946 120 117 109
-1.32005 0.0175704 0.811256 59 61 61
-1.46184 0.116505 0.391324 199 171 175
-1.52165 -0.360591 0.42895 87 73 59
-1.47778 0.296253 0.552415 130 125 125
-1.38097 -0.123752 0.691997 210 201 224
-1.38287 0.456137 0.453773 130 120 115
-1.10067 -0.483072 0.792472 175 166 158
-1.44703 0.590526 0.61819 118 117 115
-1.4801 0.596857 0.374515 89 80 63
-1.36918 0.319458 0.375048 55 63 88
-1.16853 -0.0629266 0.680241 79 85 97
-1.10582 -0.382499 0.756184 197 174 156
-1.49848 0.576491 0.152387 144 137 120
-1.45734 0.155342 0.534952 157 149 146
-1.48109 -0.102192 0.372005 59 53 50
-1.44234 0.536696 0.433622 89 80 70
-1.23895 0.657822 0.732194 146 143 133
-1.30131 -0.363231 0.593091 173 172 173
-1.52006 -0.00410533 0.232691 110 110 115
-1.27959 0.0781017 0.712026 199 200 195
-1.33848 -0.222396 0.650355 176 144 193
-1.61652 -0.104236 0.231386 102 97 96
-1.42341 -0.203789 0.392955 59 47 48
-1.30485 0.211505 0.8113 229 233 236
-1.181 0.398358 0.792307 155 148 139
-1.3597 0.47632 0.45251 116 108 108
-1.65603 0.555221 0.391084 115 104 98
-1.5404 0.476231 0.311636 103 91 81
-1.51934 0.635639 0.273311 138 132 114
-1.2409 -0.283092 0.65344 174 139 161
-1.42239 0.0404624 0.315369 68 62 59
-1.10318 0.415812 0.656203 154 71 107
-1.41967 0.196914 0.570585 85 91 98
-1.20124 0.236478 0.753809 221 220 213
-1.34163 -0.343784 0.572329 111 108 109
-1.33807 -0.18334 0.669336 129 144 185
-1.58409 0.159131 0.171921 163 160 159
-1.29879 0.636973 0.553405 160 153 142
-1.44133 0.556767 0.194193 153 146 135
-1.46164 0.637605 0.332627 132 126 112
-1.51845 -0.302683 0.213524 133 128 117
-1.20056 0.536639 0.672721 52 59 71
-1.45979 0.216988 0.352674 90 93 100
-1.65644 -0.242365 0.353498 201 211 224
-1.541 -0.0643042 0.293144 90 90 92
-1.12128 0.517074 0.672438 86 86 102
-1.32326 0.0117168 0.615942 124 122 129
-1.41933 -0.242145 0.552385 146 98 125
-1.12232 -0.843878 0.774225 208 203 198
-1.49886 -0.123812 0.248729 113 101 116
-1.39186 -0.434382 0.290224 147 146 150
-1.12086 0.394866 0.773007 132 123 118
-1.62535 -0.124062 0.390415 153 121 120
-1.45075 -0.157252 0.299413 171 175 174
-1.71648 0.534942 0.335117 112 101 90
-1.44051 0.5768 0.193671 151 143 130
-1.40327 0.397291 0.7338 63 57 48
-1.12022 -0.342771 0.792378 207 203 200
-1.29147 -0.502243 0.634205 133 147 145
-1.42387 -0.247875 0.312053 68 67 67
-1.31905 0.115619 0.531012 195 181 181
-1.27788 0.358339 0.828798 52 18 22
-1.30034 -0.461825 0.631537 202 202 204
-1.19925 0.155391 0.811502 225 223 217
-1.16597 -0.202933 0.710318 191 185 186
-1.20237 -0.582743 0.672948 164 164 160
-1.57908 -0.323515 0.191676 167 155 140
-1.40248 -0.185395 0.650669 159 157 169
-1.36088 0.615428 0.41227 155 151 138
-1.75427 0.515756 0.330423 93 83 63
-1.59746 0.0800581 0.270426 145 143 136
-1.26208 0.237034 0.653436 115 104 110
-1.16123 0.515976 0.77321 134 137 137
-1.46483 0.396312 0.212702 183 176 170
-1.45674 -0.304994 0.431657 106 100 95
-1.67823 0.578009 0.273231 101 88 70
-1.30234 0.176742 0.771118 236 239 241
-1.42054 0.155394 0.611883 175 172 193
-1.22155 -0.284102 0.653285 191 168 177
-1.48283 0.679768 0.328021 116 114 99
-1.68054 -0.102578 0.331406 81 65 62
-1.64014 -0.183209 0.33068 149 124 126
-1.24091 0.456061 0.553385 83 88 104
-1.42052 -0.164253 0.593416 132 132 130
-1.5407 0.315361 0.333324 24 25 28
-1.53987 -0.144106 0.311874 210 204 175
-1.40934 0.337391 0.319976 148 146 145
-1.51851 -0.0228191 0.575193 79 73 69
-1.40022 -0.183691 0.592812 88 87 91
-1.43693 -0.328687 0.533492 68 68 66
-1.59713 -0.371877 0.264439 191 169 152
-1.46664 0.523765 0.214861 108 99 97
-1.38295 0.556834 0.512995 102 98 94
-1.42025 0.418218 0.509074 145 132 126
-1.31841 0.560476 0.690224 100 103 106
-1.3195 0.195879 0.513293 192 182 182
-1.53709 0.53852 0.405492 75 67 57
-1.54197 -0.28266 0.273084 118 115 109
-1.16765 -0.701633 0.734929 88 92 96
-1.19929 0.517215 0.813293 57 59 62
-1.30121 -0.0840213 0.585537 179 190 196
-1.42412 0.136879 0.355139 149 151 154
-1.22088 -0.284551 0.613103 166 154 145
-1.52219 -0.0425166 0.371864 86 85 85
-1.48038 0.0161704 0.613023 79 72 65
-1.53789 0.116794 0.293373 180 181 186
-1.44126 -0.203831 0.571646 145 140 145
-1.54089 0.175998 0.273217 165 163 174
-1.55829 0.36059 0.670969 106 105 105
-1.50066 -0.304131 0.251882 120 116 108
-1.30196 -0.300188 0.513519 151 145 140
-1.42372 0.615741 0.473216 153 147 134
-1.47786 0.0576019 0.371305 82 76 66
-1.24438 0.630353 0.533332 141 135 121
-1.30176 0.637021 0.492041 135 134 123
-1.60177 0.135645 0.193433 187 186 182
-1.38116 0.295622 0.510623 163 156 152
-1.21636 -0.0843493 0.828407 204 195 211
-1.42255 -0.242622 0.413624 175 157 159
-1.28246 0.135231 0.512877 203 190 190
-1.20176 0.555239 0.553829 157 146 136
-1.36155 0.597149 0.473998 168 164 152
-1.22223 0.0974073 0.752581 229 227 222
-1.31969 0.216415 0.512433 192 182 178
-1.71605 0.572513 0.2946 100 86 73
-1.16182 0.61745 0.772567 168 166 156
-1.30592 0.196706 0.476253 172 176 202
-1.49327 0.511985 0.649915 58 70 96
-1.521 0.236924 0.372964 164 148 149
-1.16315 0.649841 0.718127 112 119 105
-1.32177 0.674931 0.553959 118 119 101
-1.27761 -0.20279 0.728631 166 178 157
-1.21933 0.399183 0.812386 125 112 103
-1.22348 -0.324357 0.634783 130 130 140
-1.30299 -0.558253 0.53445 10 68 77
-1.20493 0.0761926 0.69442 137 138 133
-1.66331 -0.123814 0.353705 98 68 69
-1.53981 0.395827 0.253006 110 106 92
-1.5421 0.476442 0.29292 102 92 84
-1.53895 0.357762 0.393917 122 91 56
-1.5013 -0.283518 0.352366 159 149 142
-1.49426 0.483541 0.257121 132 121 123
-1.42637 0.343981 0.726565 129 132 133
-1.42489 0.475476 0.356481 92 84 80
-1.517 0.0355401 0.55494 86 80 73
-1.1598 -0.123883 0.793175 157 160 158
-1.40029 0.277277 0.63217 128 131 140
-1.26711 0.117491 0.618613 179 150 175
-1.28416 -0.0833572 0.514294 195 184 180
-1.34347 0.354443 0.695892 79 82 82
-1.52758 0.0543472 0.160524 179 171 176
-1.14318 -0.284953 0.773933 214 208 202
-1.3625 0.376493 0.454577 100 97 94
-1.36131 0.0161444 0.512835 154 145 142
-1.44146 0.0734998 0.293088 168 167 169
-1.54244 -0.0420573 0.252217 83 81 85
-1.35799 -0.162507 0.65134 67 88 136
-1.56945 -0.0894435 0.482893 168 162 158
-1.22165 -0.283564 0.672962 162 165 191
-1.34325 -0.104752 0.655283 119 129 174
-1.50406 0.472108 0.319379 118 105 108
-1.55859 -0.324121 0.313381 83 76 68
-1.60249 0.556387 0.431588 99 87 78
-1.40293 0.609806 0.23352 149 146 140
-1.24416 0.0749355 0.55277 207 197 196
-1.34538 -0.12334 0.758573 172 165 149
-1.56387 -0.104222 0.473346 167 159 157
-1.45993 -0.363389 0.47229 159 155 154
-1.16364 -0.224337 0.735087 161 160 149
-1.5782 0.480442 0.352213 96 87 71
-1.52083 -0.244052 0.253981 53 54 56
-1.54191 0.51543 0.153368 165 155 153
-1.28375 0.6112 0.414063 152 145 126
-1.66223 0.574875 0.232245 92 81 64
-1.36203 0.497042 0.632346 65 43 48
-1.4725 0.668611 0.389218 135 129 115
-1.34337 -0.0835395 0.489298 179 172 169
-1.34127 0.0768119 0.612657 144 138 135
-1.34176 0.597441 0.613077 51 46 38
-1.5764 -0.423669 0.331039 14 11 13
-1.4808 0.636224 0.251947 129 125 109
-1.31883 0.216566 0.551737 153 147 150
-1.22745 0.336592 0.616042 93 86 99
-1.38181 0.400559 0.670801 84 77 66
-1.41821 0.615755 0.3311 146 141 124
-1.32101 0.235993 0.634073 159 132 142
-1.21983 -0.222761 0.652191 166 82 126
-1.20131 0.576882 0.772279 71 69 63
-1.46087 -0.142666 0.292121 148 148 148
-1.38002 0.480936 0.551087 72 37 44
-1.57156 -0.195765 0.443286 156 134 151
-1.34348 0.177247 0.612942 134 136 149
-1.1848 -0.18236 0.671697 154 158 174
-1.12273 -0.542897 0.813189 188 185 180
-1.3615 0.598505 0.552907 90 84 74
-1.2218 0.156419 0.752541 228 223 215
-1.58154 0.0344191 0.212943 100 97 99
-1.45865 0.456406 0.471479 160 154 157
-1.27965 0.237563 0.633529 154 129 137
-1.53412 0.55346 0.35455 80 67 47
-1.64404 -0.244844 0.254417 62 53 40
-1.29475 0.518554 0.709931 4 6 13
-1.49522 0.299985 0.589464 26 45 57
-1.2597 0.0198752 0.830676 53 56 57
-1.40755 -0.3442 0.393572 59 47 39
-1.32308 0.236766 0.731775 218 223 229
-1.60971 -0.0951598 0.383925 204 198 194
-1.20042 0.416272 0.671779 158 82 96
-1.37863 -0.381294 0.592597 195 190 200
-1.37949 -0.0420807 0.472995 164 160 157
-1.32311 -0.245255 0.691393 165 167 192
-1.18584 0.653534 0.694112 110 117 102
-1.56525 -0.122269 0.334912 87 70 53
-1.46041 0.477435 0.431604 126 119 107
-1.51226 0.371318 0.705241 7 9 9
-1.34007 -0.16448 0.612434 119 121 123
-1.47883 0.61264 0.35202 128 120 104
-1.50083 -0.0825584 0.39303 74 75 82
-1.42073 -0.343919 0.472942 115 114 112
-1.41683 0.334421 0.57477 72 68 65
-1.46474 0.632735 0.2128 130 132 121
-1.54079 -0.0227028 0.351916 78 75 79
-1.44089 -0.266371 0.433615 189 191 194
-1.19414 -0.52108 0.751673 188 187 188
-1.63974 0.355858 0.292909 109 110 117
-1.47999 0.477309 0.391819 103 92 80
-1.5471 -0.0218493 0.55328 78 72 66
-1.10286 -0.364477 0.775409 203 182 166
-1.49904 0.472354 0.454841 142 132 128
-1.18177 0.632503 0.653747 151 151 139
-1.24144 0.275277 0.673889 162 158 126
-1.26139 -0.0036275 0.712897 185 188 196
-1.34088 -0.0837911 0.672616 190 197 225
-1.11075 -0.329593 0.758864 209 191 171
-1.26217 0.636227 0.611406 165 158 148
-1.26051 -0.403244 0.672765 205 203 203
-1.43554 -0.415894 0.258409 45 47 49
-1.18311 0.613788 0.514116 168 162 158
-1.50233 -0.0230599 0.253197 106 104 112
-1.40077 0.318015 0.670925 62 63 57
-1.47867 -0.363667 0.39403 63 58 51
-1.41096 0.029752 0.640985 49 49 46
-1.16715 0.290773 0.779626 196 195 202
-1.39867 0.0966381 0.572608 120 140 155
-1.29181 -0.240909 0.705065 168 179 199
-1.3962 0.115809 0.590302 109 128 155
-1.46099 -0.104988 0.612043 84 80 70
-1.22478 0.0142168 0.657058 137 158 200
-1.56496 0.64976 0.191769 137 131 109
-1.42032 0.377846 0.550111 90 81 74
-1.32125 -0.282754 0.59267 196 162 181
-1.31958 0.19729 0.650952 109 96 100
-1.51524 0.65214 0.210597 115 115 99
-1.49519 0.535173 0.431124 96 86 83
-1.2771 0.135942 0.809544 246 247 249
-1.62033 0.0772323 0.232809 156 153 148
-1.39641 0.597852 0.568507 35 28 21
-1.19346 -0.800263 0.804455 77 59 69
-1.36316 0.295339 0.55164 157 147 146
-1.26202 0.236728 0.633296 142 124 122
-1.2023 -0.363718 0.653581 191 186 181
-1.14316 0.577796 0.694335 184 180 168
-1.50066 -0.446074 0.25136 98 97 98
-1.31912 0.575993 0.592674 95 91 83
-1.16659 -0.365431 0.697353 198 193 188
-1.52186 0.0365795 0.271337 88 84 76
-1.2697 -0.0776008 0.54649 192 182 187
-1.421 0.297171 0.573145 88 87 90
-1.15858 0.516845 0.691098 104 105 109
-1.40194 0.557338 0.254725 151 142 128
-1.16679 -0.803297 0.738731 123 132 136
-1.58038 -0.298855 0.252411 167 156 145
-1.56221 0.275861 0.253234 174 169 184
-1.31651 -0.205556 0.753654 191 187 164
-1.14617 -0.323961 0.721496 211 195 175
-1.40226 0.176598 0.531805 162 154 153
-1.57884 0.516245 0.412574 109 97 80
-1.60378 -0.263255 0.331062 152 134 128
-1.36724 0.173815 0.39616 111 113 135
-1.60236 -0.223111 0.232345 124 127 128
-1.24071 -0.123081 0.774126 191 195 194
-1.40153 -0.224274 0.532021 169 162 160
-1.60127 0.095661 0.172991 142 139 132
-1.55188 0.321957 0.581329 60 63 63
-1.12058 0.6122 0.633691 193 179 169
-1.51951 0.336652 0.65372 88 88 81
-1.30051 0.155228 0.810161 241 244 247
-1.46197 0.0738894 0.591522 116 112 104
-1.48364 -0.343958 0.372438 72 67 61
-1.52687 -0.229563 0.197609 51 49 46
-1.61882 -0.0630676 0.232715 99 95 93
-1.60461 -0.00260481 0.414571 123 117 109
-1.44025 0.397255 0.331788 137 134 124
-1.53912 0.157953 0.291743 200 201 214
-1.55781 -0.0473455 0.430516 105 103 105
-1.47824 0.533483 0.631243 183 176 177
-1.3816 0.477061 0.571547 78 29 37
-1.29872 0.456957 0.471669 129 125 128
-1.52182 0.21652 0.213023 183 177 174
-1.20159 -0.303582 0.673597 195 189 187
-1.39983 -0.00188324 0.392628 85 80 79
-1.70087 0.498649 0.332779 111 100 88
-1.26573 0.477509 0.500349 214 197 191
-1.38311 0.377053 0.753839 39 29 29
-1.24142 0.577664 0.433512 171 160 151
-1.17988 0.595899 0.791711 156 152 140
-1.42201 0.597955 0.33351 149 143 128
-1.43838 -0.103313 0.333521 139 139 119
-1.29663 -0.00197952 0.712632 167 172 182
-1.58364 -0.244649 0.292887 107 87 65
-1.40198 0.576264 0.554397 85 83 78
-1.36507 0.655693 0.513819 140 132 119
-1.54236 0.296426 0.173687 146 140 132
-1.62004 0.473985 0.351074 110 99 93
-1.28038 -0.0230155 0.692279 189 197 211
-1.64027 0.477209 0.433414 123 111 105
-1.63376 0.419458 0.346377 34 31 23
-1.24129 0.136405 0.751631 231 233 235
-1.36415 0.410971 0.673922 59 48 37
-1.12021 -0.271896 0.754903 204 187 158
-1.49762 -0.157372 0.614559 62 60 49
-1.23961 -0.141886 0.815046 170 174 180
-1.51919 0.455281 0.290621 114 105 91
-1.31978 -0.182005 0.450393 194 156 184
-1.27282 -0.18101 0.745489 201 201 154
-1.45787 -0.364468 0.254149 126 126 127
-1.6186 -0.0633516 0.252834 89 85 88
-1.50145 0.674478 0.312158 124 121 107
-1.50189 -0.202913 0.252662 146 147 153
-1.48327 -0.403551 0.412287 68 60 56
-1.28009 -0.280092 0.73304 223 220 217
-1.40102 0.216897 0.492732 186 176 173
-1.54094 -0.183862 0.234831 127 118 132
-1.56492 0.63726 0.155142 126 119 98
-1.25066 -0.289357 0.542104 74 69 55
-1.34408 -0.00353512 0.526618 176 165 158
-1.34314 -0.243695 0.493299 182 173 163
-1.53973 0.337473 0.409298 183 106 63
-1.53928 -0.122933 0.3921 102 91 95
-1.63351 -0.0422767 0.252474 95 91 92
-1.45674 0.36081 0.692023 50 50 49
-1.34158 0.396926 0.573143 91 82 68
-1.18738 -0.944824 0.773569 211 204 198
-1.23943 -0.622838 0.594543 15 61 58
-1.54165 -0.264263 0.332345 152 136 133
-1.44155 0.0791468 0.532297 141 125 110
-1.42168 -0.322391 0.494191 110 105 101
-1.3214 -0.263712 0.712964 196 196 214
-1.49359 0.437959 0.193137 171 159 154
-1.20997 0.606818 0.456491 148 146 142
-1.49583 -0.162604 0.534302 162 156 153
-1.52838 -0.120313 0.216871 122 129 148
-1.26279 0.377706 0.612031 119 111 111
-1.58074 0.157997 0.272601 139 139 145
-1.4784 -0.0864795 0.450938 77 72 81
-1.44306 -0.323491 0.332921 75 69 63
-1.20257 -0.0440197 0.754605 140 143 125
-1.22033 0.377105 0.811055 81 76 79
-1.54019 -0.124289 0.211682 116 121 130
-1.61515 0.0535151 0.37163 84 73 64
-1.44086 -0.343575 0.452046 145 143 145
-1.51956 0.396539 0.55401 85 73 65
-1.32661 -0.163689 0.738572 186 198 133
-1.42758 0.0908418 0.316623 192 198 215
-1.44079 0.0972286 0.352437 170 170 173
-1.16156 0.455027 0.732015 60 63 76
-1.40434 0.594995 0.231861 157 148 139
-1.40107 0.596332 0.33235 153 148 134
-1.44251 -0.104109 0.432441 73 51 50
-1.46125 0.176984 0.372466 123 107 113
-1.34105 0.296713 0.632782 88 92 97
-1.23891 -0.0431603 0.69238 192 202 218
-1.50171 0.0371511 0.212587 99 93 91
-1.18783 0.366397 0.728217 90 90 99
-1.24181 -0.263275 0.652342 175 111 146
-1.43755 -0.180658 0.663828 24 22 30
-1.13869 0.0434208 0.772443 46 44 40
-1.47576 0.495261 0.329575 109 99 98
-1.50143 0.336899 0.333357 38 38 41
-1.34015 0.196075 0.433103 238 159 171
-1.5207 0.256936 0.253727 150 148 162
-1.21829 -0.242078 0.809732 199 203 213
-1.52173 0.35707 0.412956 127 92 56
-1.35862 0.256584 0.671292 140 163 165
-1.36307 -0.32317 0.432318 80 73 68
-1.37927 0.0539729 0.691949 109 109 104
-1.51724 0.317585 0.331419 30 30 30
-1.28022 0.375466 0.532114 125 114 112
-1.54221 0.0765122 0.21352 150 145 136
-1.4968 0.614297 0.36845 153 149 131
-1.27967 -0.482713 0.612853 161 172 194
-1.3624 0.371329 0.69398 55 50 46
-1.22049 0.137274 0.693552 112 199 232
-1.28051 0.396631 0.49403 179 157 159
-1.26084 0.516478 0.652516 113 118 118
-1.48289 0.136235 0.274002 157 156 171
-1.47779 0.653207 0.333514 131 123 109
-1.45522 0.0794697 0.537297 171 158 143
-1.26217 0.297449 0.812632 153 153 153
-1.3797 -0.142885 0.433974 139 92 89
-1.20063 0.613713 0.572922 165 156 142
-1.66081 0.555366 0.332254 97 83 63
-1.40069 0.336791 0.450031 121 120 127
-1.13988 -0.383307 0.771873 203 191 190
-1.18026 -0.604515 0.693396 159 157 153
-1.5785 0.476258 0.414656 137 126 115
-1.42033 0.278765 0.57283 104 99 104
-1.1605 0.013791 0.735635 136 137 145
-1.5589 -0.0834096 0.312773 74 72 59
-1.23759 -0.443689 0.614236 177 185 209
-1.16309 -0.18307 0.751974 150 150 104
-1.52126 -0.443369 0.210998 50 52 53
-1.50046 0.61533 0.152389 135 131 112
-1.41952 -0.320606 0.336436 77 70 64
-1.49768 -0.27955 0.469546 123 105 90
-1.36084 0.0184286 0.694262 139 143 151
-1.55618 -0.0371881 0.561232 68 65 58
-1.68262 0.495503 0.372337 110 100 85
-1.10568 0.436716 0.733464 29 37 59
-1.59369 0.47855 0.390026 134 121 118
-1.42419 -0.474421 0.339004 159 158 161
-1.35956 -0.544145 0.510178 31 76 142
-1.11941 -0.3629 0.812814 196 193 177
-1.23415 0.161203 0.610929 116 188 242
-1.62241 0.493649 0.253234 112 102 85
-1.38157 0.0982826 0.572645 122 153 175
-1.20075 0.536127 0.713342 72 76 82
-1.50476 0.117529 0.235567 207 204 209
-1.35772 -0.544551 0.465292 29 79 150
-1.55261 0.608461 0.274599 144 142 127
-1.23575 0.6768 0.730442 164 161 153
-1.15913 0.61525 0.831773 201 197 183
-1.47771 0.0568839 0.392108 86 79 68
-1.48404 0.519471 0.632841 49 57 76
-1.25769 0.0807978 0.792092 225 222 216
-1.28051 0.377209 0.612058 106 99 97
-1.18778 0.173214 0.740019 205 199 207
-1.50349 0.438163 0.168711 175 163 158
-1.20249 0.558937 0.494119 180 170 158
-1.36209 0.377414 0.509766 134 124 114
-1.4601 0.296255 0.469315 110 110 136
-1.36407 0.256929 0.509582 174 166 160
-1.38261 -0.0221622 0.415867 100 99 102
-1.40031 -0.363251 0.471444 158 154 155
-1.14431 -0.143893 0.713608 151 148 147
-1.45036 0.122375 0.294712 59 64 72
-1.46166 -0.0428366 0.332051 99 100 109
-1.61918 0.139892 0.270952 160 164 171
-1.28048 0.411425 0.827796 89 78 63
-1.12035 0.458523 0.713843 74 79 92
-1.50309 -0.243829 0.234246 57 62 69
-1.71522 0.578173 0.273345 100 89 81
-1.33887 -0.402646 0.571101 215 213 215
-1.23924 0.577849 0.472919 172 161 142
-1.32381 -0.503176 0.493239 48 91 158
-1.10133 0.614942 0.732829 180 173 160
-1.10283 -0.483114 0.773397 173 163 155
-1.36213 0.334632 0.6518 40 43 54
-1.48474 0.276177 0.235777 182 181 184
-1.54392 0.364857 0.44747 75 74 90
-1.66 0.496228 0.332091 110 98 84
-1.29255 0.102177 0.80618 245 248 249
-1.35637 0.636923 0.532208 150 142 130
-1.53615 0.196078 0.406739 164 93 136
-1.30054 -0.241551 0.772609 200 185 163
-1.61712 -0.40036 0.280366 157 156 155
-1.26088 0.456485 0.653328 78 36 45
-1.38287 0.357122 0.713534 60 61 63
-1.19912 -0.361948 0.791517 220 207 208
-1.39887 0.558034 0.572781 58 59 61
-1.43796 0.035809 0.452511 86 76 67
-1.60395 0.358505 0.274221 146 139 147
-1.44123 0.377736 0.292965 112 111 105
-1.44533 0.51482 0.554646 41 30 42
-1.67414 -0.144299 0.314342 71 60 59
-1.45945 -0.18382 0.294475 171 172 174
-1.37426 0.041558 0.753108 48 50 51
-1.14524 -0.39992 0.698805 158 115 76
-1.52437 0.475642 0.433979 124 114 111
-1.4196 0.374656 0.793657 58 29 31
-1.47298 0.693394 0.366797 118 118 101
-1.20826 0.272531 0.696841 86 153 169
-1.38263 0.517387 0.3943 104 96 99
-1.30131 0.255291 0.594226 81 115 131
-1.42037 0.336592 0.412179 130 97 63
-1.53795 0.594663 0.29339 111 103 85
-1.36128 0.136503 0.472879 168 167 181
-1.24354 0.598313 0.653286 174 169 159
-1.36206 -0.00333257 0.491795 172 166 162
-1.30021 0.538592 0.391484 144 132 119
-1.49577 0.376584 0.650565 42 39 33
-1.44139 0.47631 0.552969 84 95 111
-1.37849 -0.402859 0.512014 188 195 199
-1.39672 -0.421367 0.296118 146 141 138
-1.11822 -0.122905 0.752454 162 161 119
-1.29925 0.276397 0.531941 188 175 173
-1.28111 0.456263 0.573454 76 70 77
-1.58195 0.135708 0.252634 152 154 160
-1.21559 0.575568 0.790488 64 62 59
-1.46326 -0.162465 0.531333 156 153 152
-1.37975 -0.322674 0.570459 98 97 100
-1.30938 -0.266043 0.720528 197 200 215
-1.44341 -0.485075 0.393964 143 141 140
-1.61769 -0.0443895 0.312119 81 77 74
-1.28075 0.276795 0.731948 212 211 210
-1.62234 0.496486 0.315068 99 89 78
-1.26218 0.634041 0.673949 153 149 139
-1.48114 0.155869 0.333176 147 150 152
-1.51562 0.36045 0.692502 9 10 12
-1.28104 0.457288 0.512782 152 143 146
-1.5173 -0.104542 0.572234 113 109 104
-1.41426 0.657235 0.428088 145 139 125
-1.50146 0.395441 0.311959 89 84 74
-1.50641 0.173412 0.222448 204 193 197
-1.44252 -0.00418311 0.353693 69 66 64
-1.62344 -0.222226 0.372769 183 183 193
-1.49509 -0.324338 0.352527 89 84 77
-1.54361 -0.459955 0.292981 83 79 79
-1.47818 0.135684 0.371181 160 146 158
-1.2795 0.0608575 0.671293 143 142 130
-1.41701 -0.00302808 0.592704 93 86 77
-1.50087 0.156377 0.292843 191 190 206
-1.34126 0.376638 0.813568 61 22 25
-1.53887 -0.444217 0.333268 13 12 15
-1.18119 0.395098 0.693054 133 100 100
-1.42218 0.156977 0.393121 167 138 148
-1.47607 0.25742 0.447365 115 122 179
-1.35962 0.256885 0.592526 106 106 111
-1.56008 0.235612 0.193032 174 173 168
-1.52101 0.457776 0.312923 102 92 78
-1.32256 -0.00519134 0.530346 192 180 183
-1.67432 0.477071 0.309772 116 103 90
-1.35877 -0.422556 0.552021 180 181 183
-1.44194 0.336213 0.354569 76 77 84
-1.56138 0.376998 0.292622 65 63 61
-1.49026 0.257625 0.543588 154 147 146
-1.36089 -0.382876 0.473594 155 155 158
-1.31857 0.435943 0.611814 154 112 107
-1.19962 -0.262917 0.732541 173 176 176
-1.30344 0.414199 0.812672 90 78 63
-1.45895 0.175692 0.550409 122 122 123
-1.49927 -0.0248512 0.332398 102 102 106
-1.60132 0.415991 0.331539 52 49 38
-1.41786 0.0638203 0.638507 65 60 52
-1.32182 -0.12335 0.633228 144 152 166
-1.30157 0.0176544 0.712574 154 157 166
-1.27816 0.29813 0.612519 95 91 108
-1.12156 0.0580268 0.793697 99 95 89
-1.24036 -0.243427 0.73293 160 169 153
-1.39845 -0.103799 0.389892 81 69 74
-1.29906 -0.402885 0.652649 190 182 180
-1.61866 0.376412 0.233175 78 77 71
-1.38458 0.177312 0.376473 81 85 106
-1.34022 0.116988 0.532924 174 166 161
-1.18122 0.417772 0.7927 142 134 130
-1.38216 0.0971844 0.412408 219 134 137
-1.4617 -0.0243803 0.294113 112 112 126
-1.09732 0.61366 0.671511 186 174 159
-1.5194 -0.316743 0.405222 70 70 68
-1.54292 -0.224224 0.173581 115 111 110
-1.30033 0.296662 0.692655 108 135 137
-1.10147 0.577167 0.633906 181 169 162
-1.28051 0.535675 0.631961 91 90 85
-1.35483 0.138407 0.666588 79 159 193
-1.50843 -0.0646956 0.517864 158 155 151
-1.57512 0.617084 0.192764 142 138 116
-1.40037 -0.321331 0.532709 100 92 86
-1.24058 -0.303534 0.672635 202 189 183
-1.48032 0.374983 0.534571 95 85 77
-1.52131 0.61681 0.151901 132 127 105
-1.60326 -0.0850292 0.31396 107 109 111
-1.12346 -0.543323 0.735432 160 177 134
-1.4625 0.335978 0.332687 108 108 113
-1.31702 -0.34222 0.65321 209 209 210
-1.62052 -0.204038 0.272681 141 132 113
-1.27995 0.435944 0.513499 153 125 130
-1.33966 0.315447 0.633134 50 54 67
-1.44841 -0.36812 0.295335 165 169 170
-1.2986 -0.0233084 0.5339 183 171 164
-1.44 -0.274787 0.597609 192 91 168
-1.18625 0.590984 0.459344 176 168 154
-1.43931 0.0979638 0.533751 147 135 126
-1.58331 -0.0650894 0.43209 109 105 105
-1.30262 0.177123 0.493983 200 192 192
-1.22096 -0.72268 0.711516 52 57 66
-1.30303 -0.443096 0.573718 212 207 202
-1.37367 0.297622 0.351574 141 140 151
-1.28085 0.0368156 0.752359 83 82 83
-1.28208 -0.324708 0.65241 188 185 183
-1.28056 0.216587 0.634542 149 128 140
-1.3967 -0.461593 0.509008 145 148 157
-1.30768 -0.299951 0.459083 54 44 30
-1.14273 0.575553 0.57357 178 165 153
-1.45788 -0.344676 0.253773 150 149 145
-1.19931 -0.782457 0.77168 156 152 141
-1.52036 -0.0636946 0.371752 93 90 95
-1.39888 -0.324321 0.473244 113 109 106
-1.46695 0.521511 0.15589 163 154 147
-1.40326 0.0974787 0.392818 193 183 188
-1.50499 0.556387 0.11893 144 141 129
-1.36125 0.176419 0.433646 209 142 150
-1.46043 -0.082221 0.572606 117 116 110
-1.60057 -0.264586 0.292548 142 128 117
-1.50601 -0.42477 0.217715 54 57 58
-1.46179 -0.102055 0.491908 183 175 172
-1.32088 -0.103202 0.475485 119 109 107
-1.24118 -0.363158 0.692798 211 207 206
-1.47888 0.576335 0.307448 123 116 103
-1.32188 -0.104536 0.635216 105 118 146
-1.12367 0.456064 0.753549 43 55 80
-1.1432 -0.323886 0.736133 201 188 172
-1.26573 0.175712 0.570302 138 140 158
-1.41949 0.315937 0.372323 33 37 56
-1.21785 -0.686639 0.71037 75 75 71
-1.54312 -0.103566 0.292792 143 141 127
-1.33586 0.238175 0.728544 202 207 211
-1.2812 0.557084 0.413001 158 148 132
-1.52028 -0.464708 0.23272 88 85 83
-1.47992 -0.223572 0.352984 121 97 94
-1.38854 -0.144512 0.382072 140 114 121
-1.44055 -0.323671 0.43245 99 96 93
-1.2016 0.537662 0.652626 54 60 75
-1.42007 -0.29982 0.451149 163 159 157
-1.52304 -0.0433561 0.569754 88 86 84
-1.40227 0.516861 0.47179 136 128 122
-1.42119 -0.263141 0.532732 140 98 124
-1.599 -0.182544 0.387251 185 149 153
-1.58178 0.115966 0.17219 167 163 163
-1.38198 0.518497 0.693636 29 41 63
-1.38026 0.436561 0.434569 111 102 95
-1.54248 -0.0426171 0.27488 92 93 100
-1.18573 0.309426 0.773782 186 184 192
-1.5792 0.115911 0.310751 155 155 162
-1.23453 -0.661882 0.614995 83 95 85
-1.17701 -0.822453 0.809249 130 113 119
-1.20925 -0.421689 0.618904 177 181 209
-1.57609 0.494058 0.231358 136 126 117
-1.18725 0.497695 0.579844 185 182 188
-1.25778 0.397671 0.814449 83 65 57
-1.32728 0.382123 0.663377 109 101 107
-1.20282 -0.583841 0.694758 171 170 166
-1.26154 -0.0435305 0.672326 118 142 190
-1.45421 0.587047 0.627011 163 165 161
-1.20112 -0.703377 0.693414 74 73 72
-1.30387 0.258118 0.49412 176 167 179
-1.44 0.456787 0.352575 99 92 91
-1.16377 -0.285153 0.734243 197 189 182
-1.44193 -0.404604 0.416248 53 45 41
-1.46284 -0.0808798 0.432228 108 98 94
-1.2209 -0.0427948 0.810911 210 220 226
-1.22163 0.577956 0.512746 180 168 155
-1.36272 0.398805 0.593789 63 53 41
-1.40099 0.295987 0.413963 166 125 91
-1.22295 0.276424 0.792855 215 214 216
-1.51339 0.257683 0.426766 164 115 116
-1.42361 0.156773 0.456656 123 133 195
-1.52548 -0.14344 0.221716 117 127 151
-1.17924 -0.422241 0.691697 189 179 169
-1.64141 0.537754 0.231898 100 90 78
-1.29934 0.470463 0.713073 149 38 54
-1.28088 -0.282006 0.693078 204 197 202
-1.41834 -0.143225 0.451777 79 60 63
-1.67337 0.493694 0.423582 97 88 78
-1.34231 0.396028 0.795124 58 39 33
-1.49573 0.592985 0.251831 141 138 123
-1.22241 0.0756508 0.71321 187 186 177
-1.4016 0.0968911 0.552899 110 113 117
-1.40534 -0.320491 0.395409 92 86 79
-1.61747 -0.0619711 0.311805 95 89 83
-1.3182 0.594323 0.512402 163 159 150
-1.18115 -0.323909 0.753275 198 192 189
-1.22323 0.0145149 0.733169 113 113 117
-1.38098 0.0157147 0.454129 131 127 124
-1.40673 0.546165 0.642239 10 18 30
-1.49739 0.513933 0.516309 73 73 81
-1.38109 0.156676 0.494529 183 174 172
-1.58038 0.434878 0.21329 138 131 116
-1.42157 0.633019 0.293346 139 138 130
-1.38127 0.496737 0.453551 117 110 106
-1.32097 0.137469 0.65312 125 112 109
-1.21821 -0.762922 0.692079 165 169 176
-1.56301 0.37673 0.373939 47 44 41
-1.54193 0.398386 0.233155 121 118 104
-1.19042 0.518341 0.57829 97 95 108
-1.53328 0.341747 0.561826 132 121 114
-1.13716 -0.0433471 0.732568 156 167 61
-1.2988 0.401996 0.693647 75 66 52
-1.5846 0.316833 0.274648 166 162 171
-1.51547 0.0538876 0.449188 84 73 62
-1.22339 -0.0243562 0.71402 187 192 195
-1.24044 -0.60258 0.613623 14 66 64
-1.38165 0.156903 0.433545 184 137 167
-1.57971 -0.298963 0.314066 178 156 138
-1.40461 -0.408151 0.328167 194 196 195
-1.15979 -0.902415 0.755638 203 199 197
-1.32009 0.53679 0.452619 114 108 109
-1.34308 -0.00527161 0.433918 68 65 61
-1.16024 0.496997 0.712374 131 139 146
-1.30044 0.136681 0.711692 215 225 227
-1.41812 0.516722 0.411806 82 72 58
-1.22757 -0.0121888 0.63801 169 161 146
-1.50875 -0.125972 0.49551 166 163 160
-1.34221 -0.00370979 0.491995 175 169 167
-1.42115 0.455706 0.334058 101 94 94
-1.50036 0.0772118 0.29303 134 133 133
-1.32213 0.414881 0.45351 121 117 120
-1.34103 0.35784 0.829496 51 29 35
-1.4787 0.337024 0.352577 36 38 43
-1.19622 -0.601752 0.709647 176 174 170
-1.56434 -0.424827 0.33237 18 15 15
-1.22145 0.57802 0.652782 178 176 169
-1.44335 -0.122499 0.515554 167 161 159
-1.51979 -0.263231 0.313412 145 125 102
-1.71885 0.51919 0.333848 110 99 88
-1.36061 0.0592241 0.453048 164 161 165
-1.50122 0.117901 0.352607 160 158 160
-1.50042 -0.244195 0.453373 185 181 185
-1.24337 0.436672 0.593002 89 52 70
-1.56039 -0.0236441 0.212008 112 112 116
-1.34037 -0.482277 0.533067 138 154 182
-1.63358 0.607631 0.334866 94 83 63
-1.31862 -0.00266391 0.671618 177 190 217
-1.46596 0.17779 0.277483 139 140 169
-1.36268 0.0714998 0.711926 105 102 94
-1.33182 -0.414627 0.624154 212 214 222
-1.43956 -0.457729 0.392451 124 114 107
-1.40263 0.256535 0.354533 112 114 125
-1.48124 0.295573 0.273015 163 148 159
-1.56261 -0.143693 0.334281 121 101 86
-1.14231 -0.0633965 0.712589 186 183 177
-1.63873 0.609891 0.247018 88 80 66
-1.57888 -0.361687 0.273609 133 132 130
-1.30269 0.196675 0.633024 126 129 133
-1.48129 0.356685 0.392946 84 70 59
-1.17592 0.353527 0.708853 88 85 90
-1.43928 -0.023262 0.412418 95 92 96
-1.50295 0.157079 0.373765 203 202 208
-1.49565 -0.143894 0.471833 168 165 163
-1.33877 0.618472 0.654317 77 73 65
-1.35802 0.0193523 0.75125 54 56 57
-1.44247 0.536527 0.31294 99 91 89
-1.48164 0.357163 0.453258 115 117 164
-1.38872 0.430115 0.804527 59 39 30
-1.14601 -0.783688 0.759874 169 171 173
-1.50104 -0.30294 0.392477 132 121 112
-1.29972 0.5583 0.573791 66 63 56
-1.22135 -0.323787 0.732896 213 208 207
-1.37947 -0.16244 0.550523 164 151 144
-1.20136 0.0146504 0.753211 130 127 127
-1.18095 -0.583361 0.692869 165 163 160
-1.62635 0.0988314 0.29547 193 195 206
-1.24117 -0.46419 0.633773 179 183 191
-1.48152 -0.322272 0.253167 108 103 94
-1.45626 0.23732 0.532636 143 139 140
-1.48351 -0.34366 0.453303 135 128 124
-1.61304 0.0472716 0.315549 67 57 51
-1.46701 0.63744 0.395749 147 141 128
-1.50028 0.364228 0.629729 75 73 74
-1.421 -0.0432509 0.552864 146 138 132
-1.63328 -0.0237664 0.330843 73 69 69
-1.20158 0.436506 0.653551 80 56 81
-1.45855 0.136865 0.374221 144 129 137
-1.25693 0.0435066 0.650228 167 165 159
-1.48164 -0.0831627 0.35352 78 78 77
-1.4804 0.174524 0.41073 202 99 113
-1.23967 -0.50349 0.672097 186 186 184
-1.15808 0.596023 0.750741 191 191 181
-1.47904 -0.324063 0.393792 96 87 78
-1.2316 -0.759964 0.688803 182 186 193
-1.42175 -0.30478 0.494448 142 127 116
-1.35895 -0.00399937 0.432641 94 89 91
-1.57784 -0.299105 0.291468 168 153 141
-1.30554 0.196202 0.810982 230 233 236
-1.36884 0.373188 0.852341 46 9 13
-1.63627 0.177844 0.274415 168 170 179
-1.42043 -0.302156 0.472665 132 129 127
-1.56028 0.236479 0.230577 179 180 192
-1.64232 0.421154 0.416404 108 101 91
-1.66395 0.556574 0.211426 94 84 68
-1.38149 -0.323781 0.494034 134 132 132
-1.51592 -0.0812641 0.450875 49 34 39
-1.20118 0.537312 0.612783 78 77 88
-1.19592 0.356571 0.670751 89 86 93
-1.23689 -0.321719 0.750151 225 215 214
-1.40296 0.380117 0.33257 129 128 124
-1.23842 0.457386 0.73224 115 31 46
-1.26082 0.536402 0.532627 95 95 103
-1.61743 -0.0419113 0.411927 67 63 69
-1.39981 -0.284117 0.393351 164 163 161
-1.51044 0.320937 0.178281 179 171 175
-1.26107 0.116452 0.812248 243 242 241
-1.69605 0.438356 0.388418 138 130 120
-1.31765 -0.56139 0.490536 120 151 207
-1.39954 -0.163428 0.513045 169 163 161
-1.14336 -0.383396 0.793966 195 191 182
-1.48118 -0.403132 0.352105 6 6 8
-1.62042 0.610526 0.353786 124 116 101
-1.5426 0.177071 0.352993 54 56 57
-1.50077 -0.0638207 0.553088 106 102 98
-1.20533 0.612867 0.533608 178 166 154
-1.23876 0.196668 0.610756 116 180 232
-1.28221 0.396373 0.532978 150 117 116
-1.18242 0.435954 0.733756 110 39 52
-1.44791 0.481239 0.280161 102 94 95
-1.64192 -0.00682061 0.310822 62 57 56
-1.46156 -0.163466 0.490831 187 180 177
-1.49968 0.53748 0.488147 183 179 177
-1.20057 0.497688 0.751744 37 46 54
-1.23999 0.417204 0.552563 132 75 97
-1.34711 -0.223323 0.526868 155 143 128
-1.28129 0.456141 0.532811 95 85 94
-1.20528 -0.299304 0.613067 162 156 152
-1.47596 0.0120795 0.458949 53 44 32
-1.45367 0.555884 0.329958 88 77 62
-1.46119 -0.342904 0.49186 97 93 89
-1.24122 0.394734 0.752764 81 75 65
-1.42062 -0.0850235 0.593097 121 117 104
-1.23896 -0.183311 0.77203 201 196 184
-1.37131 0.0153717 0.736605 47 50 51
-1.36015 0.0589984 0.412999 167 156 152
-1.20603 0.0115208 0.674799 181 186 195
-1.36287 -0.242378 0.651714 193 127 167
-1.37873 0.595859 0.570731 36 30 23
-1.26232 -0.3824 0.632593 183 176 173
-1.22164 -0.403334 0.712917 210 201 203
-1.35863 0.458693 0.628801 138 79 82
-1.22089 0.0740294 0.792278 221 223 221
-1.32423 -0.10535 0.672705 196 197 218
-1.5212 0.197571 0.351618 31 32 36
-1.42757 0.587553 0.640586 157 157 155
-1.20661 0.156977 0.715281 231 237 243
-1.30216 0.557119 0.452973 167 161 154
-1.25733 -0.502238 0.667718 190 189 189
-1.31753 -0.362961 0.530542 161 159 159
-1.59605 -0.0609515 0.451105 41 39 38
-1.48204 0.332862 0.6518 43 44 42
-1.15908 0.4567 0.671988 78 85 100
-1.12694 -0.94106 0.776103 156 151 146
-1.10504 -0.443938 0.774852 172 162 154
-1.48257 0.197172 0.252342 172 173 183
-1.6174 0.572433 0.412067 82 71 58
-1.25796 -0.422266 0.690095 206 204 206
-1.54662 -0.163729 0.195325 142 140 143
-1.64036 0.136067 0.192532 210 208 206
-1.24407 0.335244 0.79372 121 100 109
-1.3392 0.435609 0.59346 134 95 88
-1.22081 0.595446 0.632908 163 161 153
-1.53904 0.634452 0.256268 136 130 109
-1.4456 0.0121966 0.632308 125 123 120
-1.35901 0.539218 0.330218 152 146 137
-1.47992 0.217087 0.292474 208 204 216
-1.39946 -0.203685 0.450001 176 161 164
-1.51953 0.236682 0.310884 125 127 124
-1.46758 -0.0617276 0.276157 114 109 119
-1.55412 -0.388524 0.374537 47 33 22
-1.39818 0.395623 0.789358 65 27 31
-1.37649 0.591121 0.651194 67 65 62
-1.19909 0.575867 0.75242 128 127 120
-1.2479 0.564146 0.418788 157 149 137
-1.35955 0.436379 0.531712 139 87 87
-1.30377 0.315884 0.493811 166 159 169
-1.38209 0.595718 0.291727 155 148 137
-1.41497 0.629884 0.453526 153 147 134
-1.18733 0.195859 0.635376 183 155 196
-1.53935 -0.183026 0.252683 174 172 173
-1.38307 -0.203184 0.411093 119 99 107
-1.46315 -0.0225996 0.275794 114 113 127
-1.39639 0.517661 0.491534 121 116 113
-1.50003 -0.222041 0.490903 118 115 109
-1.54076 0.317677 0.393501 180 117 94
-1.48086 0.0746234 0.253038 197 198 199
-1.56228 0.558007 0.165349 134 127 115
-1.63795 -0.108388 0.372966 139 131 128
-1.47703 0.0163817 0.492654 188 177 173
-1.58016 -0.0627527 0.232128 106 99 100
-1.34046 0.596702 0.553727 102 96 86
-1.52115 0.516537 0.134069 163 154 148
-1.18289 -0.104043 0.795126 130 140 147
-1.11899 0.437397 0.653039 87 85 107
-1.52236 -0.0629407 0.2537 83 78 81
-1.20363 -0.102932 0.657676 201 194 176
-1.6223 -0.203373 0.412657 201 198 201
-1.53404 -0.220629 0.488698 117 112 106
-1.11994 -0.382941 0.79262 186 182 172
-1.32313 0.382363 0.530733 122 114 104
-1.3576 0.297131 0.472268 176 173 180
-1.34172 0.539422 0.393756 127 121 117
-1.16052 0.395848 0.712687 138 98 102
-1.27977 0.197129 0.732446 205 207 211
-1.28865 0.662718 0.69105 133 131 120
-1.32197 0.578144 0.472469 145 138 123
-1.52295 -0.103163 0.273099 88 86 82
-1.42376 -0.244086 0.493634 167 161 156
-1.58391 -0.163508 0.293828 203 201 172
-1.1822 0.377523 0.692351 123 120 118
-1.27893 -0.38292 0.671097 203 195 193
-1.46056 -0.00363313 0.352062 79 74 73
-1.32293 0.576387 0.334113 153 144 128
-1.50679 -0.364203 0.235219 160 161 155
-1.50558 0.416405 0.172692 178 165 161
-1.45932 -0.0827742 0.352687 75 73 66
-1.03925 0.558864 0.690056 218 205 205
-1.20879 0.235729 0.602483 71 157 221
-1.38134 -0.00287172 0.533383 136 127 122
-1.45797 0.236619 0.388577 215 146 150
-1.31684 -0.309584 0.650687 136 134 134
-1.26344 0.294682 0.695892 120 142 143
-1.10306 0.611124 0.597763 156 153 150
-1.58427 0.514691 0.332913 86 74 56
-1.19212 -0.614196 0.734162 177 176 170
-1.56155 0.575569 0.153365 129 125 110
-1.39801 0.197344 0.613948 178 139 140
-1.17537 -0.362088 0.808719 187 179 141
-1.57946 -0.283914 0.312582 169 158 153
-1.10201 0.516068 0.752181 147 146 143
-1.26109 0.616634 0.552514 172 168 160
-1.22258 -0.637243 0.597439 59 88 85
-1.22051 -0.223501 0.772761 199 198 192
-1.4283 -0.391467 0.2966 149 150 152
-1.27723 0.458105 0.689256 122 34 47
-1.42027 -0.403082 0.313652 187 187 187
-1.48071 0.236056 0.351469 48 50 55
-1.3809 0.0737339 0.532177 146 136 126
-1.31888 -0.0220156 0.670011 169 186 225
-1.42153 0.356364 0.591765 65 60 61
-1.40119 -0.302264 0.392952 126 121 112
-1.42054 0.116972 0.610729 168 164 175
-1.30166 0.577444 0.373095 162 152 135
-1.63582 -0.0402964 0.290733 83 80 75
-1.48253 0.459083 0.332543 109 99 99
-1.5387 0.436065 0.152325 170 158 151
-1.45763 0.377871 0.732772 63 60 52
-1.27985 -0.142859 0.732415 164 178 141
-1.48553 -0.181214 0.468822 169 165 163
-1.47518 0.0709184 0.605464 66 63 56
-1.3612 0.356449 0.594143 91 85 94
-1.65899 0.515001 0.411289 105 95 86
-1.22125 0.51675 0.612621 112 114 121
-1.54475 0.413907 0.569407 67 55 47
-1.37309 0.196757 0.651044 116 107 113
-1.61594 -0.122039 0.272526 143 142 122
-1.40204 -0.265215 0.392916 173 169 170
-1.49611 0.425669 0.410229 75 69 59
-1.58123 -0.0643148 0.332322 67 66 62
-1.47879 0.315754 0.590495 36 42 49
-1.12065 -0.16319 0.792336 154 156 146
-1.42219 0.35955 0.732881 44 44 49
-1.44131 -0.00463754 0.37334 66 61 58
-1.44079 -0.163605 0.494925 176 170 168
-1.50216 0.596194 0.175317 138 133 113
-1.3984 -0.123104 0.391942 85 72 79
-1.50065 0.054656 0.571118 108 103 96
-1.58167 0.137341 0.172733 167 162 164
-1.52211 -0.282914 0.334397 161 150 145
-1.49156 0.303165 0.442731 112 119 181
-1.22274 0.0416158 0.673822 148 146 146
-1.31567 0.257129 0.532305 192 180 181
-1.11953 -0.822859 0.789019 184 168 134
-1.28264 -0.503354 0.592518 194 204 225
-1.28204 0.255387 0.613695 135 129 140
-1.18571 -0.655361 0.67631 138 135 131
-1.61757 -0.261298 0.372027 159 150 150
-1.29941 0.277143 0.514185 194 181 177
-1.68125 0.576352 0.253075 94 82 66
-1.34288 0.0589504 0.433574 154 146 142
-1.35528 -0.440889 0.567727 224 221 224
-1.31753 0.427985 0.824814 210 198 192
-1.4997 -0.203721 0.431031 184 167 175
-1.49929 -0.0851109 0.410762 89 81 90
-1.59476 0.136688 0.291758 200 203 216
-1.5481 0.581711 0.199852 114 110 93
-1.40217 0.216337 0.531492 157 152 152
-1.21566 -0.463256 0.730418 136 131 127
-1.52143 -0.0448502 0.552105 66 64 60
-1.66177 -0.261896 0.272759 137 122 114
-1.32322 0.414956 0.753534 76 64 50
-1.34158 0.575573 0.57237 83 78 71
-1.34133 0.495803 0.652639 64 38 45
-1.60214 0.31698 0.293459 130 131 144
-1.54244 -0.0830789 0.41254 56 57 59
-1.26384 0.456031 0.613589 66 50 56
-1.28051 0.197464 0.771552 226 229 235
-1.2408 -0.203498 0.692646 118 138 184
-1.58287 0.276107 0.21274 202 200 201
-1.38121 0.177047 0.493877 181 173 170
-1.59796 0.476911 0.23235 140 130 114
-1.51765 -0.00350959 0.45121 84 77 71
-1.21786 0.383307 0.755764 86 81 70
-1.39773 0.477002 0.331405 116 104 104
-1.40984 -0.481184 0.338455 169 170 174
-1.55451 0.136186 0.372243 197 195 202
-1.46891 0.0158566 0.256081 102 100 107
-1.30463 -0.0420766 0.491946 174 167 162
-1.23988 0.0592373 0.692514 169 170 163
-1.26349 0.075093 0.655403 136 133 127
-1.4666 0.61173 0.142641 153 151 140
-1.48016 -0.323656 0.41103 87 85 80
-1.19426 0.273975 0.645113 143 145 158
-1.5603 -0.263418 0.272161 91 87 86
-1.24279 -0.0227036 0.638391 140 136 128
-1.40078 0.356651 0.58788 81 75 81
-1.26506 0.215975 0.596041 81 87 111
-1.30248 -0.13942 0.598301 133 124 111
-1.24144 0.416134 0.533436 152 75 96
-1.35959 -0.441805 0.475306 177 178 185
-1.49581 0.357161 0.6554 34 35 39
-1.53858 0.23664 0.251115 185 183 200
-1.53734 0.33745 0.252287 138 132 135
-1.40094 0.3565 0.413911 66 59 53
-1.18142 0.616798 0.632438 173 166 155
-1.40163 -0.143502 0.551084 163 152 145
-1.18071 -0.0436686 0.812364 188 199 206
-1.3848 -0.163241 0.413738 148 126 134
-1.33403 0.453367 0.648171 135 69 74
-1.32109 -0.343573 0.532335 105 103 101
-1.35424 0.443508 0.60852 173 143 141
-1.2816 -0.383591 0.572325 196 187 178
-1.22089 -0.0239557 0.692443 193 198 208
-1.38158 -0.203681 0.454723 185 173 177
-1.59372 0.381921 0.671791 11 9 7
-1.5187 0.0574531 0.271621 96 91 80
-1.61935 -0.183351 0.331982 114 91 92
-1.42958 0.507672 0.566188 12 9 14
-1.5842 -0.221907 0.273125 111 107 99
-1.40038 0.0771609 0.572511 118 128 131
-1.24253 0.636307 0.592989 153 150 138
-1.66585 -0.224988 0.313975 91 76 73
-1.37597 -0.138948 0.710099 196 197 206
-1.14287 0.578752 0.672779 179 170 155
-1.48554 0.435315 0.19379 169 157 153
-1.26504 0.357183 0.532218 178 165 168
-1.60146 -0.0020234 0.332328 88 84 90
-1.37896 0.576984 0.693319 126 128 127
-1.37549 0.0366849 0.694046 114 115 119
-1.30111 0.0361217 0.812561 75 76 74
-1.38147 0.236644 0.494265 183 175 172
-1.34151 0.631498 0.394147 132 133 123
-1.1429 -0.503661 0.774103 176 175 169
-1.38402 0.00398929 0.671784 132 155 211
-1.52362 0.377963 0.254179 80 78 78
-1.35958 0.376632 0.811236 60 23 25
-1.58164 0.176404 0.313195 127 131 137
-1.23542 0.461406 0.793009 23 22 33
-1.30609 0.0959974 0.477241 187 188 200
-1.42282 0.33683 0.332384 164 165 182
-1.1998 0.156732 0.773549 230 229 223
-1.28109 -0.163545 0.831775 198 192 196
-1.08601 -0.984318 0.83245 118 76 64
-1.49442 0.491739 0.589342 79 60 68
-1.35914 -0.402456 0.572627 226 229 243
-1.19932 -0.103933 0.772943 186 182 167
-1.38473 0.357448 0.569349 80 73 74
-1.44217 -0.162822 0.429565 123 48 61
-1.67939 0.463243 0.316957 127 117 106
-1.30182 -0.00356843 0.65372 192 201 218
-1.44236 -0.143035 0.431164 103 50 58
-1.4476 0.216745 0.294823 178 161 183
-1.32021 0.19702 0.632297 144 119 129
-1.43883 0.257663 0.433161 200 148 167
-1.53938 -0.323495 0.172887 129 124 117
-1.18105 -0.443117 0.672479 188 185 183
-1.12296 0.61185 0.615014 181 169 156
-1.71756 -0.203404 0.309692 131 95 93
-1.28188 -0.144016 0.67348 155 162 189
-1.38916 -0.262803 0.318525 149 147 143
-1.14304 -0.083804 0.713689 164 161 162
-1.37905 0.614518 0.530778 165 159 147
-1.46055 -0.26469 0.413269 191 192 198
-1.31968 0.4574 0.531832 82 65 66
-1.36678 0.456694 0.595391 138 90 90
-1.48243 -0.0638105 0.412586 82 79 81
-1.22155 -0.563352 0.673493 173 174 170
-1.39979 0.636181 0.352518 127 125 110
-1.32777 0.381787 0.416402 207 195 191
-1.49896 0.0361491 0.534004 103 96 89
-1.67815 0.463385 0.395999 140 134 117
-1.46955 -0.0371324 0.260935 137 125 129
-1.47652 0.554569 0.513961 101 103 111
-1.26017 -0.142861 0.733088 144 160 124
-1.31886 -0.242584 0.669768 140 139 179
-1.37918 -0.201156 0.672645 169 174 215
-1.43988 0.595644 0.271386 151 145 133
-1.14169 -0.642382 0.77427 173 169 166
-1.40202 0.15626 0.553218 77 101 118
-1.28176 -0.204192 0.77544 218 210 196
-1.36657 -0.0654012 0.568548 144 141 132
-1.32 0.0950154 0.532025 195 182 181
-1.23944 -0.563383 0.612661 14 73 71
-1.66698 -0.126752 0.33296 100 77 79
-1.53809 0.396003 0.137486 177 168 163
-1.20656 -0.44328 0.617821 165 173 200
-1.55731 -0.121515 0.311581 149 144 114
-1.56256 0.556135 0.374881 88 78 65
-1.28067 0.416645 0.632338 146 122 114
-1.11926 0.596599 0.712371 174 167 156
-1.48194 -0.143561 0.452182 150 134 135
-1.57834 0.580801 0.194162 108 101 82
-1.62476 -0.0816198 0.412486 78 40 37
-1.41908 0.456753 0.392248 103 95 91
-1.33646 -0.441495 0.587503 203 204 222
-1.22897 0.313227 0.718915 97 112 94
-1.50022 -0.00347499 0.553415 80 73 67
-1.40208 0.518496 0.373489 97 90 92
-1.42117 -0.464698 0.351722 161 146 129
-1.45585 0.555256 0.309713 142 143 140
-1.5825 -0.18503 0.353307 80 62 66
-1.2835 -0.263987 0.614722 172 100 148
-1.36083 0.060651 0.551071 99 88 76
-1.44105 0.556551 0.612905 44 48 60
-1.36136 0.17653 0.613013 149 138 146
-1.24104 -0.483146 0.58955 200 206 214
-1.18922 -0.527945 0.63871 5 54 53
-1.4221 0.538027 0.633148 113 120 124
-1.59481 0.375166 0.658894 7 8 12
-1.6443 -0.245259 0.230676 37 38 38
-1.15986 -0.282069 0.81201 225 217 216
-1.47547 -0.0428032 0.493639 190 179 176
-1.38119 -0.182849 0.45507 169 135 140
-1.53858 0.256112 0.293648 168 172 182
-1.29924 0.195586 0.795376 223 231 233
-1.51936 0.0762531 0.332517 104 101 96
-1.46049 -0.343838 0.431962 141 139 139
-1.319 0.336557 0.493372 181 171 166
-1.22277 -0.183367 0.792943 170 178 185
-1.42469 0.376886 0.713515 45 43 41
-1.2831 0.0441832 0.626044 167 162 157
-1.28025 0.415236 0.733372 92 82 64
-1.51707 -0.0177376 0.613521 58 52 43
-1.40061 0.336881 0.432458 114 100 90
-1.60044 0.575463 0.388538 103 91 77
-1.4795 0.634304 0.193881 129 131 118
-1.0223 0.581594 0.709627 208 192 184
-1.39632 -0.00422364 0.475123 168 162 160
-1.34443 -0.300719 0.452607 140 134 128
-1.4772 -0.202392 0.452041 184 176 178
-1.12008 0.457104 0.734069 73 76 89
-1.26817 0.372355 0.847185 62 60 69
-1.51718 -0.403304 0.270959 162 164 163
-1.32176 0.256773 0.491991 189 180 179
-1.51759 -0.14391 0.472012 147 142 140
-1.51222 0.476354 0.530303 131 130 134
-1.72386 0.537576 0.274043 100 89 79
-1.32424 0.290383 0.597342 72 73 81
-1.40043 0.456567 0.333381 113 101 102
-1.51108 -0.12083 0.625313 22 23 24
-1.36519 -0.122137 0.550758 162 151 139
-1.4412 0.175579 0.315814 222 221 243
-1.18554 0.596494 0.477319 188 175 167
-1.50056 0.116599 0.252309 167 168 178
-1.4263 0.257157 0.318787 162 162 177
-1.12086 -0.0639305 0.792999 147 151 146
-1.45892 0.176643 0.58888 48 75 95
-1.58343 -0.183823 0.273695 178 178 166
-1.46145 -0.121752 0.312781 132 132 115
-1.34083 0.1765 0.532891 166 158 154
-1.25997 -0.0833632 0.73307 136 148 129
-1.56311 -0.0213355 0.353717 96 96 100
-1.29968 0.615182 0.510998 166 161 149
-1.43682 0.575216 0.39203 94 86 69
-1.1427 -0.602935 0.77491 180 179 174
-1.36364 -0.525199 0.455802 119 116 119
-1.48209 0.617813 0.272442 135 130 115
-1.14123 -0.902856 0.79346 215 210 203
-1.08264 0.616894 0.773804 185 177 160
-1.63276 0.212073 0.287677 18 22 38
-1.28391 0.0170555 0.851392 59 59 58
-1.4384 -0.265625 0.551909 182 111 146
-1.68027 -0.124255 0.349762 104 84 82
-1.43759 0.0780256 0.517287 153 142 134
-1.51067 0.370813 0.696396 7 9 9
-1.48086 -0.342627 0.292222 105 101 98
-1.4214 0.416138 0.372767 127 122 119
-1.24216 0.315197 0.752459 201 197 191
-1.18277 0.0737562 0.754721 194 190 183
-1.22066 -0.0631994 0.772392 171 172 160
-1.34179 0.036974 0.453251 81 74 66
-1.28393 0.540719 0.454614 152 142 133
-1.4641 0.274217 0.416393 202 112 112
-1.41923 -0.185279 0.668551 97 115 155
-1.53891 0.316606 0.232262 182 180 182
-1.5784 -0.184554 0.331237 157 134 126
-1.21958 0.460379 0.811615 17 18 25
-1.28255 -0.143775 0.634193 172 170 163
-1.56209 0.276161 0.331289 58 58 59
-1.74292 0.56063 0.311718 86 78 68
-1.34866 0.396328 0.731234 70 64 51
-1.28209 0.558053 0.473093 159 151 140
-1.43999 0.19778 0.53253 146 143 144
-1.17805 0.476142 0.672153 49 62 84
-1.45659 0.136567 0.518985 171 162 157
-1.47946 0.0170175 0.251847 95 92 94
-1.30482 -0.286527 0.514194 154 147 139
-1.47649 0.358964 0.467704 94 92 117
-1.34147 0.155896 0.653235 142 127 117
-1.64357 0.433943 0.292028 92 87 75
-1.30145 0.53627 0.492886 145 137 136
-1.24069 0.257605 0.812438 205 210 210
-1.26021 0.156229 0.753123 230 232 234
-1.26196 -0.16234 0.652883 106 117 139
-1.39987 0.135865 0.474536 161 156 160
-1.16216 -0.243398 0.793559 185 188 191
-1.4421 0.0973116 0.453445 153 152 167
-1.16147 0.235912 0.793116 232 230 219
-1.46142 0.43734 0.433237 118 109 95
-1.5812 0.434585 0.354035 77 71 56
-1.50276 0.671541 0.256906 81 86 68
-1.34124 0.390239 0.852178 45 12 11
-1.40027 -0.363049 0.534293 149 148 149
-1.47897 -0.0869372 0.470917 150 139 135
-1.31601 0.457938 0.631952 131 20 33
-1.25805 0.476067 0.730246 44 21 34
-1.52582 -0.129785 0.508601 164 160 160
-1.14003 -0.442614 0.772704 183 173 166
-1.26086 0.256405 0.67288 150 161 140
-1.46236 0.337309 0.312514 179 180 193
-1.42124 -0.183787 0.552923 159 151 148
-1.10274 -0.622875 0.774448 151 147 143
-1.28712 -0.145277 0.77917 225 218 214
-1.29892 0.438132 0.63101 144 79 82
-1.24268 0.576879 0.493407 179 167 156
-1.3057 0.541657 0.375199 150 139 124
-1.4793 0.155053 0.412442 215 104 114
-1.40093 0.575849 0.252014 152 144 130
-1.52114 0.436824 0.390819 123 119 106
-1.60094 0.396824 0.352184 85 80 74
-1.52014 -0.199581 0.531619 162 159 160
-1.55961 0.436963 0.291034 118 112 100
-1.5427 -0.0236403 0.211715 112 111 114
-1.25539 0.557192 0.771534 109 112 114
-1.17947 0.577679 0.712897 171 171 165
-1.4606 -0.0432306 0.293646 86 84 97
-1.2394 0.515273 0.71242 67 73 77
-1.55006 -0.0467165 0.433016 149 145 146
-1.46416 0.0350148 0.611255 59 55 47
-1.40103 0.195268 0.451298 142 142 168
-1.50405 0.378672 0.412385 83 80 85
-1.35934 -0.104308 0.749055 168 172 139
-1.46257 0.277878 0.43373 182 164 178
-1.51311 -0.0638293 0.508913 162 157 152
-1.50283 -0.183666 0.293643 174 175 164
-1.21867 -0.382885 0.730451 213 197 202
