ply
format ascii 1.0
comment Created by Open3D
element vertex 1219
property double x
property double y
property double z
property uchar red
property uchar green
property uchar blue
end_header
-0.436066 -0.827783 0.604539 109 110 57
-0.640705 -0.922216 0.473294 59 61 35
-0.581106 -0.904024 0.492565 53 54 44
-0.419235 -0.861384 0.551005 82 81 42
-0.381351 -0.861886 0.570247 96 96 51
-0.704688 -0.93223 0.442259 128 124 67
-0.679338 -0.928649 0.457946 125 121 66
-0.602252 -0.906124 0.492725 46 48 39
-0.619162 -0.906894 0.492599 33 36 34
-0.42347 -0.84345 0.555479 85 83 43
-0.505889 -0.502547 0.655355 138 107 82
-0.678412 -0.920538 0.473147 63 65 35
-0.580586 -0.901529 0.512322 37 39 37
-0.563525 -0.901297 0.512127 48 48 39
-0.382468 -0.845009 0.576428 87 86 46
-0.371287 -0.873611 0.58938 102 101 58
-0.660093 -0.904322 0.472633 31 35 20
-0.661406 -0.903742 0.4929 40 42 22
-0.381163 -0.843055 0.593159 86 86 45
-0.678364 -0.907281 0.475832 44 48 27
-0.621167 -0.906022 0.512683 30 33 33
-0.363431 -0.859487 0.609527 95 94 53
-0.365828 -0.875463 0.615658 52 50 31
-0.398662 -0.958283 0.640376 21 21 24
-0.714 -0.906056 0.477023 110 108 59
-0.458162 -0.828561 0.556008 134 131 72
-0.396455 -0.925757 0.633869 31 31 29
-0.403923 -0.961795 0.652036 44 42 41
-0.382186 -0.825606 0.595455 78 77 41
-0.700131 -0.90613 0.490519 64 66 35
-0.362352 -0.825428 0.614397 81 80 42
-0.6793 -0.903424 0.512644 36 39 19
-0.45892 -0.825515 0.571413 128 126 72
-0.409597 -0.809324 0.581101 105 102 52
-0.335972 -0.946339 0.69029 31 29 32
-0.578558 -0.864145 0.532976 26 28 31
-0.581034 -0.863032 0.55152 26 28 32
-0.5412 -0.862569 0.553367 28 28 32
-0.436695 -0.811627 0.578106 133 130 70
-0.397349 -0.942621 0.67076 22 22 24
-0.36189 -0.924207 0.670347 38 37 38
-0.720975 -0.880609 0.511519 132 128 70
-0.437648 -0.809056 0.593221 134 132 74
-0.384201 -0.804792 0.614923 80 79 41
-0.359577 -0.822076 0.631516 74 75 38
-0.397149 -0.955456 0.68323 57 55 56
-0.562577 -0.860279 0.573303 28 28 32
-0.520351 -0.866348 0.592108 42 42 46
-0.456388 -0.821665 0.592566 91 92 60
-0.400935 -0.94846 0.683087 56 54 55
-0.499892 -0.864254 0.593794 94 97 87
-0.479256 -0.843777 0.593981 98 99 78
-0.732208 -0.875943 0.516722 130 125 69
-0.6205 -0.863079 0.571592 46 47 39
-0.421092 -0.79777 0.608092 132 130 71
-0.717471 -0.872608 0.530867 132 128 70
-0.518134 -0.85841 0.602807 30 29 33
-0.439277 -0.806297 0.605608 124 122 75
-0.415957 -0.866963 0.460954 112 114 55
-0.449599 -0.826343 0.502705 124 123 62
-0.560919 -0.863762 0.432287 91 98 75
-0.486326 -0.956779 0.427852 108 101 77
-0.469723 -0.939121 0.434835 100 101 63
-0.497395 -0.901998 0.434319 136 161 146
-0.68059 -0.979727 0.411845 118 116 65
-0.66456 -0.956007 0.452388 81 82 44
-0.681275 -0.955447 0.445978 135 132 73
-0.40805 -0.914006 0.559552 111 111 64
-0.58378 -0.583519 0.773369 105 75 56
-0.660126 -0.93908 0.472863 114 113 61
-0.5808 -0.922 0.492418 65 66 47
-0.700926 -0.94231 0.472855 139 136 74
-0.680181 -0.940409 0.472226 123 121 66
-0.620068 -0.923334 0.492558 59 61 47
-0.659705 -0.921638 0.493376 40 43 23
-0.700121 -0.937751 0.491894 142 139 76
-0.39166 -0.855587 0.583863 92 91 48
-0.663608 -1.10428 0.493245 29 28 30
-0.720651 -0.938431 0.492609 140 137 73
-0.36579 -0.90431 0.635254 20 20 23
-0.347309 -0.928163 0.655373 28 27 29
-0.699929 -0.917762 0.493465 68 71 37
-0.368967 -0.891537 0.629192 18 19 21
-0.636026 -0.790502 0.533489 59 66 55
-0.561382 -0.864949 0.53392 26 26 30
-0.378049 -0.839667 0.609089 84 84 44
-0.52049 -0.522915 0.671986 122 101 81
-0.327698 -0.947322 0.691531 23 22 26
-0.41753 -0.816549 0.585247 106 103 53
-0.355429 -0.842245 0.626248 88 88 46
-0.401084 -0.842284 0.612661 79 80 44
-0.365235 -0.882984 0.658713 38 37 33
-0.338131 -0.96312 0.691606 39 38 38
-0.523044 -0.849762 0.575727 28 28 32
-0.58214 -0.845583 0.554606 26 28 33
-0.562792 -0.844402 0.572221 28 29 33
-0.52067 -0.839757 0.589136 28 28 31
-0.622409 -0.643171 0.792513 125 90 67
-0.564238 -0.839048 0.591287 29 30 34
-0.521889 -0.830122 0.599005 29 29 33
-0.465763 -0.824654 0.632719 88 90 89
-0.561637 -0.821174 0.611278 25 25 28
-0.579662 -0.443215 0.592624 135 169 167
-0.499979 -0.816095 0.62428 26 27 31
-0.602883 -0.703123 0.631902 102 127 121
-0.599993 -0.382978 0.612657 105 128 124
-0.71379 -0.829576 0.679881 14 20 9
-0.600481 -0.784008 0.51341 70 81 69
-0.740214 -0.304088 0.730198 166 147 135
-0.632636 -0.869442 0.397028 9 16 15
-0.630131 -0.775446 0.805143 180 161 150
-0.501405 -0.924157 0.413179 121 145 132
-0.444047 -0.822899 0.350818 130 145 141
-0.580095 -0.94569 0.398316 108 108 61
-0.739038 -0.223655 0.651774 127 112 102
-0.620459 -0.962109 0.396713 111 112 61
-0.642499 -0.964078 0.397165 111 112 62
-0.619449 -0.945128 0.413063 68 71 44
-0.642434 -0.643357 0.832014 170 157 133
-0.660115 -0.966433 0.396204 111 111 60
-0.640205 -0.951357 0.400513 116 116 61
-0.582969 -0.925969 0.432643 45 50 41
-0.600326 -0.922275 0.43391 36 40 37
-0.459613 -0.883925 0.572644 89 89 45
-0.628162 -1.04606 0.476698 9 11 14
-0.57149 -0.895661 0.381155 106 131 125
-0.419816 -0.825071 0.3615 152 164 160
-0.539311 -0.902085 0.512257 129 127 74
-0.74081 -0.187023 0.669299 199 160 135
-0.52318 -0.284334 0.690194 156 114 87
-0.563003 -0.922437 0.51297 61 60 47
-0.45892 -0.901366 0.552436 84 84 43
-0.640371 -0.543306 0.811912 134 102 76
-0.581029 -0.925258 0.513091 35 36 34
-0.597445 -0.443555 0.574564 147 193 190
-0.60264 -0.924246 0.511879 30 33 34
-0.620345 -0.922938 0.512906 29 32 33
-0.458061 -0.897903 0.570481 81 82 40
-0.581607 -0.92297 0.533101 32 32 34
-0.52114 -0.483144 0.671742 137 106 81
-0.543876 -0.911569 0.555552 60 62 62
-0.680837 -0.936496 0.513988 128 126 72
-0.620749 -1.02055 0.47446 32 32 33
-0.439645 -0.896271 0.591339 82 84 43
-0.700903 -0.937369 0.512033 143 140 76
-0.523244 -0.89631 0.549297 113 111 69
-0.479697 -0.866227 0.572283 130 129 68
-0.465011 -0.869439 0.576022 110 109 56
-0.721275 -0.938965 0.512042 140 138 75
-0.459442 -0.882843 0.591802 91 92 47
-0.420409 -0.885138 0.612007 85 86 46
-0.390309 -0.919304 0.636851 23 23 25
-0.355781 -0.977549 0.674366 46 44 43
-0.581172 -0.905626 0.572787 35 35 37
-0.501496 -0.880888 0.571279 129 131 74
-0.440095 -0.883244 0.612413 79 80 42
-0.420801 -0.880526 0.63223 76 78 40
-0.43703 -0.87927 0.630111 76 77 39
-0.4497 -0.976642 0.360757 83 71 63
-0.558313 -0.915234 0.607716 29 32 35
-0.542328 -0.908744 0.615269 62 65 67
-0.459712 -0.84888 0.613258 121 121 64
-0.459443 -0.845602 0.632321 126 127 69
-0.441316 -0.843895 0.633495 111 112 59
-0.560589 -0.90115 0.632484 29 30 33
-0.505674 -0.879694 0.631829 88 92 88
-0.43891 -0.824306 0.653591 101 100 62
-0.579823 -0.882973 0.650475 36 37 40
-0.421986 -0.8061 0.658892 49 47 43
-0.735646 -0.906071 0.530797 145 143 77
-0.463342 -0.835095 0.666284 44 45 49
-0.600402 -0.865836 0.651775 34 36 39
-0.437421 -0.806891 0.666317 56 60 55
-0.576478 -0.87723 0.663613 36 37 41
-0.520659 -0.462834 0.691316 131 105 84
-0.547025 -0.913487 0.494143 139 137 74
-0.618488 -0.44307 0.789577 154 115 86
-0.621213 -0.209893 0.685688 183 140 109
-0.580392 -0.463185 0.592444 124 154 152
-0.642175 -0.322798 0.692732 110 82 59
-0.658022 -0.951847 0.401674 124 122 65
-0.502209 -0.895334 0.530544 125 124 65
-0.640571 -0.941239 0.492244 44 47 38
-0.521464 -0.899385 0.530484 140 138 76
-0.567413 -0.93695 0.536032 41 45 42
-0.546214 -0.915934 0.536025 82 82 62
-0.513817 -0.826641 0.378992 100 84 68
-0.376785 -0.890584 0.664814 45 45 29
-0.441919 -0.832298 0.640241 123 125 64
-0.46168 -0.829348 0.663876 242 245 246
-0.62421 -0.522981 0.736137 114 88 56
-0.524382 -0.403719 0.751525 147 106 79
-0.676226 -0.34159 0.693784 115 83 60
-0.599382 -0.503423 0.575415 108 137 134
-0.618993 -0.942292 0.513221 21 26 32
-0.719647 -0.62436 0.755656 40 30 27
-0.742149 -0.351169 0.763676 202 186 182
-0.626556 -0.338709 0.682338 129 98 75
-0.51807 -1.00219 0.352064 118 148 145
-0.7002 -0.402793 0.756173 136 104 78
-0.601113 -0.941925 0.493327 24 28 33
-0.583186 -0.942189 0.492384 31 32 35
-0.561189 -0.523041 0.57372 122 158 155
-0.54739 -0.916904 0.519103 147 145 100
-0.433115 -0.893594 0.604295 84 86 46
-0.368933 -0.946549 0.65974 30 30 30
-0.484286 -0.87569 0.608607 132 134 72
-0.41923 -0.874804 0.645524 72 76 38
-0.435951 -0.862131 0.647798 84 86 43
-0.53416 -0.813551 0.539513 17 18 22
-0.580753 -1.1829 0.494835 72 71 74
-0.599452 -1.18409 0.492475 60 59 61
-0.564573 -1.1452 0.492086 58 56 60
-0.419766 -0.876402 0.467296 109 110 58
-0.567372 -1.12546 0.491478 61 58 59
-0.47209 -0.871586 0.482165 111 112 58
-0.717865 -0.782673 0.749725 100 72 62
-0.521366 -0.582034 0.674485 114 141 135
-0.591328 -0.396332 0.643439 144 114 89
-0.662563 -0.564304 0.711885 78 83 64
-0.504545 -0.624114 0.587283 101 115 107
-0.423728 -0.803443 0.469132 149 172 153
-0.63637 -0.960443 0.451113 41 44 43
-0.583386 -0.943516 0.471194 30 31 35
-0.583949 -0.663692 0.592768 142 176 173
-0.560651 -0.902254 0.572989 31 32 36
-0.58152 -0.583408 0.592678 119 150 143
-0.542592 -0.806518 0.530988 17 18 22
-0.597295 -0.883446 0.572719 24 25 30
-0.560195 -0.887578 0.595398 29 30 33
-0.540969 -0.886849 0.611331 31 33 37
-0.618993 -0.84335 0.55429 39 42 21
-0.541581 -0.881945 0.629833 30 31 35
-0.605749 -0.723732 0.756557 108 80 62
-0.581781 -0.804888 0.553208 38 40 25
-0.601318 -0.603177 0.539041 103 132 126
-0.4696 -0.962271 0.47983 100 96 64
-0.737392 -0.913158 0.501537 144 142 77
-0.718199 -0.906258 0.514113 73 76 41
-0.596494 -0.882961 0.551846 24 25 29
-0.415939 -0.955554 0.642122 67 61 57
-0.739483 -0.909077 0.513588 145 143 76
-0.385598 -0.868469 0.635218 101 101 54
-0.721469 -0.907441 0.533433 77 80 42
-0.564464 -0.404397 0.59051 155 194 190
-0.407802 -0.850064 0.626154 81 84 44
-0.640427 -0.603349 0.79271 91 68 43
-0.618155 -0.80258 0.731583 122 106 95
-0.655009 -0.441644 0.734246 135 102 74
-0.67449 -0.613069 0.661708 70 71 58
-0.664722 -0.364074 0.72981 137 101 75
-0.678099 -0.662798 0.732193 26 26 25
-0.462648 -0.97726 0.384398 96 93 86
-0.583281 -0.26707 0.707376 178 135 105
-0.558809 -0.983201 0.411821 118 137 134
-0.54524 -0.905854 0.389049 83 104 98
-0.581446 -0.923188 0.398762 100 93 74
-0.49998 -0.884917 0.434956 135 159 142
-0.642163 -0.382596 0.752495 135 96 70
-0.602061 -0.903979 0.3965 32 40 38
-0.580721 -0.885963 0.39587 94 114 109
-0.500496 -0.883891 0.451198 135 144 112
-0.540155 -0.863248 0.450641 81 87 78
-0.56275 -0.865952 0.451159 38 42 40
-0.492611 -0.915842 0.493213 103 102 55
-0.616364 -0.541433 0.593459 134 158 149
-0.476749 -0.823483 0.354587 124 124 112
-0.619676 -0.38144 0.729468 150 112 85
-0.656943 -0.807314 0.614481 65 78 66
-0.589949 -0.449074 0.786181 138 99 73
-0.520358 -0.503247 0.653313 148 116 90
-0.496926 -0.945198 0.353178 123 142 137
-0.479995 -0.942936 0.373184 116 136 131
-0.582327 -0.563643 0.592283 116 146 140
-0.607322 -0.800891 0.735791 130 112 101
-0.66437 -0.824222 0.753466 130 112 89
-0.540658 -0.44286 0.711415 113 92 70
-0.713214 -0.745921 0.794494 106 80 54
-0.587647 -0.739044 0.685225 60 65 66
-0.586862 -0.682943 0.732638 89 76 68
-0.496676 -0.560487 0.64961 106 130 123
-0.55909 -0.683923 0.551805 147 180 175
-0.618338 -0.84459 0.592287 33 35 37
-0.581592 -0.48207 0.648004 99 74 51
-0.609959 -0.692629 0.845375 147 135 125
-0.578937 -0.262391 0.673056 161 122 92
-0.641726 -0.663074 0.793068 123 91 68
-0.619823 -0.404753 0.76913 158 115 88
-0.559314 -0.423476 0.711431 103 79 45
-0.568647 -0.71831 0.668222 36 40 42
-0.561517 -0.942368 0.484723 11 10 14
-0.545081 -0.40462 0.596862 125 153 147
-0.545993 -0.562938 0.754335 107 76 58
-0.522534 -0.523029 0.63728 159 130 103
-0.478743 -0.862788 0.331865 97 90 82
-0.5622 -0.843261 0.512971 28 30 33
-0.672487 -0.548934 0.695811 55 64 53
-0.560603 -0.563354 0.5737 123 157 153
-0.505316 -0.563801 0.569791 162 196 193
-0.539495 -0.443669 0.612593 106 132 128
-0.52149 -0.483454 0.653611 159 125 98
-0.714723 -0.663993 0.746479 65 51 49
-0.618882 -0.862579 0.49291 30 33 18
-0.599878 -0.503781 0.751972 130 99 59
-0.638669 -0.743676 0.653744 104 130 124
-0.645512 -0.373681 0.652518 115 87 59
-0.695172 -0.541757 0.810838 150 121 99
-0.595092 -1.13128 0.476525 43 42 47
-0.596842 -0.381171 0.643617 112 87 62
-0.699033 -0.86341 0.692276 22 28 34
-0.602642 -0.227057 0.687057 182 140 109
-0.652599 -0.321467 0.660402 152 116 88
-0.701061 -0.264071 0.69239 149 114 87
-0.503311 -0.286185 0.68553 174 130 102
-0.570254 -1.03859 0.484396 26 26 33
-0.616973 -0.803258 0.554316 28 29 15
-0.660634 -0.623393 0.712414 71 87 83
-0.596372 -0.562139 0.645181 112 102 89
-0.620027 -0.825828 0.613723 28 30 31
-0.598214 -0.624586 0.715627 89 83 77
-0.582025 -0.603007 0.572601 113 148 142
-0.73935 -0.402637 0.772578 138 106 82
-0.479149 -0.823691 0.331737 120 102 87
-0.619161 -0.803024 0.571906 34 36 17
-0.623551 -0.824716 0.652411 22 25 27
-0.604018 -0.624896 0.670561 95 126 119
-0.561424 -0.761522 0.632175 24 26 30
-0.635153 -0.561874 0.586585 149 135 116
-0.510511 -0.591326 0.68613 140 129 129
-0.746443 -0.782354 0.696132 11 12 14
-0.602273 -0.442518 0.732803 137 100 68
-0.622107 -0.982263 0.51203 26 28 31
-0.565479 -0.834253 0.625827 32 33 35
-0.721138 -0.781818 0.733872 105 90 81
-0.624076 -0.782288 0.671942 72 86 84
-0.518149 -0.822549 0.392433 85 97 91
-0.557929 -0.981752 0.447856 63 54 49
-0.715494 -0.483251 0.759823 124 87 62
-0.580865 -0.621995 0.593504 153 188 183
-0.719709 -0.344469 0.750176 171 148 127
-0.539854 -0.383338 0.653353 148 115 89
-0.636377 -0.961718 0.474439 24 29 34
-0.541413 -0.762098 0.512383 32 34 19
-0.539637 -0.481917 0.691569 106 92 74
-0.712414 -0.86012 0.770545 141 114 79
-0.656212 -0.529633 0.7089 102 87 50
-0.485755 -0.603266 0.552018 182 221 217
-0.613328 -0.729024 0.56235 125 163 160
-0.556965 -0.523343 0.773072 67 44 34
-0.588356 -0.742108 0.78929 178 154 136
-0.522577 -0.304382 0.657451 153 117 92
-0.635328 -1.06619 0.454562 26 23 23
-0.601662 -0.643936 0.57061 141 181 176
-0.588895 -0.58114 0.82575 181 173 140
-0.699366 -0.182128 0.653305 161 132 111
-0.488697 -1.00282 0.358769 145 171 167
-0.605899 -0.804999 0.650346 12 14 18
-0.641099 -0.70268 0.792081 146 112 71
-0.596199 -0.763614 0.812097 175 152 136
-0.408273 -0.882543 0.394364 132 139 134
-0.602636 -0.721621 0.612903 108 133 126
-0.507628 -0.569605 0.583314 169 201 196
-0.539804 -0.327264 0.744606 139 99 73
-0.624386 -0.505088 0.548461 141 187 183
-0.547776 -0.226402 0.685729 180 133 101
-0.50432 -0.344452 0.710952 160 119 92
-0.460519 -0.983208 0.372501 108 107 99
-0.64538 -0.446391 0.772618 160 119 91
-0.679996 -0.722968 0.734112 86 75 69
-0.681495 -0.579758 0.826982 106 87 76
-0.582165 -0.723229 0.552013 87 105 97
-0.638801 -0.563217 0.79385 136 104 71
-0.599701 -0.242532 0.673277 162 124 93
-0.621316 -0.963733 0.472625 24 29 35
-0.700569 -0.663253 0.73585 44 38 32
-0.713103 -0.886424 0.746598 128 105 77
-0.657397 -0.84162 0.593255 46 51 30
-0.658755 -0.643208 0.753052 96 73 54
-0.692812 -0.316425 0.700451 132 98 72
-0.676956 -0.545322 0.82851 167 163 157
-0.543764 -0.243798 0.651949 162 121 94
-0.550481 -0.839018 0.505829 26 26 30
-0.450257 -0.977331 0.373173 83 71 63
-0.514909 -0.624378 0.674307 146 179 174
-0.744281 -0.806381 0.710786 24 28 29
-0.476191 -0.845533 0.413616 106 127 120
-0.602865 -0.603902 0.572217 109 143 138
-0.597949 -0.824058 0.595008 36 38 39
-0.727283 -0.350909 0.762941 190 183 179
-0.540925 -0.644302 0.533122 161 200 197
-0.483823 -0.583519 0.652207 130 156 150
-0.542933 -0.623306 0.672072 124 145 138
-0.554223 -0.509382 0.787007 58 37 28
-0.583673 -0.542865 0.774952 66 44 34
-0.739596 -0.265049 0.709345 203 189 185
-0.692447 -0.847894 0.516393 30 31 17
-0.680312 -0.543027 0.811227 135 118 102
-0.603017 -1.04545 0.505913 48 45 45
-0.521782 -0.443436 0.691474 151 116 90
-0.662837 -0.865353 0.552892 36 36 19
-0.677542 -0.622828 0.749942 75 59 39
-0.632699 -0.770285 0.579003 101 119 114
-0.580964 -0.423155 0.573428 145 193 191
-0.510751 -0.272966 0.678563 165 127 102
-0.558206 -0.782667 0.533447 27 28 17
-0.580133 -0.584478 0.696033 98 119 113
-0.629247 -0.466461 0.544544 150 201 200
-0.610031 -0.81341 0.760485 150 131 118
-0.603782 -0.484459 0.715281 102 80 53
-0.652014 -0.696409 0.662543 92 111 101
-0.658409 -0.42277 0.733503 132 99 71
-0.641647 -0.422921 0.575685 87 107 102
-0.524781 -0.422925 0.637681 103 82 62
-0.600333 -0.722794 0.572644 135 169 164
-0.622215 -0.683638 0.792251 147 110 71
-0.397397 -0.838988 0.415329 133 147 140
-0.591544 -0.503795 0.561526 136 180 176
-0.459185 -0.823725 0.39105 124 116 100
-0.641805 -0.263254 0.65155 152 111 76
-0.609785 -0.836955 0.778746 154 134 119
-0.501657 -0.823744 0.394653 97 91 78
-0.758607 -0.254314 0.65901 61 67 94
-0.622242 -0.892219 0.382046 6 12 12
-0.677734 -0.843675 0.770644 141 116 78
-0.675731 -0.623494 0.76937 109 84 48
-0.598472 -0.603517 0.792527 111 79 58
-0.62278 -0.822487 0.672084 18 20 22
-0.626032 -0.803235 0.613811 26 28 16
-0.50381 -0.363308 0.692761 168 125 82
-0.560706 -0.563212 0.610794 111 135 126
-0.539292 -0.483279 0.675819 138 106 79
-0.577464 -0.567103 0.645617 98 106 96
-0.641523 -0.68312 0.711993 91 91 86
-0.719637 -0.183152 0.652179 174 139 113
-0.627245 -0.525916 0.827111 166 148 128
-0.721007 -0.483429 0.77528 130 99 77
-0.561664 -0.523179 0.591481 111 140 135
-0.647499 -0.405953 0.712155 106 76 54
-0.640614 -0.762117 0.731763 86 80 76
-0.740555 -0.462223 0.804844 146 110 83
-0.588185 -0.682328 0.813852 164 144 128
-0.623166 -0.682663 0.711698 100 94 90
-0.540114 -0.463547 0.636308 130 113 93
-0.600431 -0.263196 0.673368 155 117 87
-0.540382 -0.663527 0.571799 127 154 149
-0.562703 -0.748337 0.59169 55 56 33
-0.72325 -0.868449 0.742974 115 95 74
-0.564577 -0.620842 0.740738 115 85 67
-0.529896 -0.842117 0.458195 24 28 30
-0.512501 -0.804774 0.381423 101 85 68
-0.670939 -0.691575 0.681513 93 121 114
-0.640878 -0.583807 0.692049 65 88 80
-0.622283 -0.604866 0.655264 87 108 100
-0.614865 -0.563003 0.59258 129 150 140
-0.622595 -0.762394 0.753567 123 108 97
-0.599171 -0.261279 0.653565 160 120 89
-0.778025 -0.422793 0.792654 161 120 93
-0.621721 -1.20336 0.495344 120 113 107
-0.659456 -0.743202 0.751802 111 91 76
-0.606444 -0.210068 0.687084 198 151 117
-0.626055 -1.05793 0.456902 26 23 22
-0.42481 -0.825101 0.42703 128 153 146
-0.622109 -0.78269 0.652059 100 123 119
-0.540438 -0.564286 0.590173 130 164 159
-0.524202 -0.461304 0.707583 95 88 77
-0.540679 -0.756685 0.553273 37 38 25
-0.560879 -0.723044 0.53178 78 92 83
-0.61515 -0.784807 0.552703 25 26 14
-0.679816 -0.54197 0.79296 141 106 79
-0.560859 -0.603129 0.532506 163 207 202
-0.663149 -0.546135 0.679253 51 50 34
-0.659521 -0.502602 0.793234 141 108 79
-0.697632 -0.882401 0.769832 128 109 82
-0.631698 -0.597726 0.558491 106 137 131
-0.59976 -0.382804 0.6949 139 106 79
-0.528405 -0.401975 0.60495 144 190 187
-0.616456 -0.66432 0.636014 94 120 111
-0.581831 -0.747804 0.592155 42 43 24
-0.643267 -0.484653 0.696979 72 50 31
-0.585361 -0.804944 0.6109 19 20 23
-0.56442 -1.16121 0.4798 36 35 38
-0.559362 -0.623112 0.533324 154 195 190
-0.54085 -0.643347 0.612777 136 163 159
-0.540924 -0.265569 0.690429 150 110 83
-0.599693 -0.781921 0.692858 76 69 65
-0.623565 -0.833125 0.433503 11 22 17
-0.641578 -0.303277 0.707523 134 100 73
-0.655287 -1.06977 0.494021 16 18 20
-0.652549 -1.06408 0.508347 30 32 30
-0.66166 -0.264399 0.707656 153 117 91
-0.486541 -0.383377 0.712907 138 100 75
-0.65616 -0.840653 0.574105 41 44 24
-0.483652 -0.921351 0.373555 112 131 126
-0.52078 -0.761063 0.532371 26 27 27
-0.510102 -0.776297 0.513653 28 30 36
-0.579932 -0.763544 0.6331 14 16 19
-0.447791 -0.842174 0.368577 126 146 141
-0.683077 -0.723568 0.769718 116 86 62
-0.59689 -0.260822 0.634408 144 110 81
-0.582243 -0.661959 0.753977 107 77 59
-0.659503 -0.683253 0.773399 113 84 61
-0.661887 -0.263355 0.673777 142 106 77
-0.532027 -0.965378 0.359355 103 134 131
-0.623656 -0.584638 0.670139 77 92 80
-0.578542 -0.563252 0.697217 90 98 89
-0.495214 -0.964168 0.353729 127 150 147
-0.555773 -0.54281 0.73127 81 59 47
-0.579518 -0.663714 0.690793 115 131 128
-0.583485 -0.444556 0.772014 138 98 72
-0.54061 -0.602426 0.671522 120 142 135
-0.674915 -0.401336 0.738213 136 101 74
-0.601772 -0.564257 0.829291 168 147 108
-0.700846 -0.82681 0.690993 14 20 23
-0.521387 -0.864224 0.394106 71 97 92
-0.580098 -0.562843 0.810586 108 82 54
-0.700862 -0.862918 0.768079 121 102 69
-0.699731 -0.646149 0.750998 64 48 35
-0.718582 -0.501493 0.791178 156 126 106
-0.615605 -1.18066 0.506256 144 135 128
-0.620927 -0.437126 0.579569 104 123 122
-0.633993 -0.91666 0.417838 9 16 14
-0.625688 -0.74426 0.736205 119 108 102
-0.660518 -0.263299 0.694244 138 103 77
-0.595569 -0.808537 0.458473 48 58 54
-0.661923 -0.623603 0.655592 70 83 72
-0.641738 -0.72304 0.754321 102 79 62
-0.596998 -0.644344 0.614446 114 143 139
-0.622548 -0.704603 0.710797 82 78 77
-0.601161 -0.663616 0.571629 146 187 182
-0.580156 -0.823513 0.492041 37 39 22
-0.579588 -0.364061 0.730551 129 95 69
-0.524627 -0.32398 0.657788 149 116 92
-0.619651 -0.28441 0.727564 158 114 86
-0.62227 -0.563031 0.69208 56 70 62
-0.580075 -0.242843 0.673633 169 129 99
-0.541635 -0.304936 0.710181 169 128 100
-0.483174 -0.823814 0.39067 117 110 96
-0.586105 -0.783612 0.590275 45 46 28
-0.702227 -0.783821 0.754484 89 68 59
-0.659098 -0.423858 0.586445 119 123 111
-0.582457 -0.523394 0.612038 118 146 141
-0.719972 -0.201392 0.63523 154 123 99
-0.629166 -0.762602 0.804779 184 166 152
-0.586081 -0.978304 0.4544 58 54 52
-0.543443 -0.422036 0.727412 129 94 67
-0.643796 -0.781057 0.804785 151 142 130
-0.691736 -0.355342 0.722645 132 95 68
-0.599093 -0.961977 0.493357 29 31 35
-0.52209 -0.603994 0.633053 123 154 151
-0.600105 -0.643471 0.752988 107 77 59
-0.540667 -0.54455 0.771024 108 77 58
-0.635708 -0.503874 0.607055 130 132 120
-0.680281 -0.423404 0.771038 144 111 84
-0.641454 -0.823101 0.633777 92 113 109
-0.524891 -0.583379 0.634536 112 143 140
-0.643551 -0.683554 0.810485 164 132 83
-0.476765 -0.615788 0.655014 83 92 91
-0.596155 -0.80142 0.532269 27 29 15
-0.719173 -0.320722 0.718147 137 109 85
-0.659397 -0.662921 0.67333 68 90 80
-0.601178 -0.884028 0.492933 27 30 31
-0.61242 -0.757964 0.523011 34 35 21
-0.692457 -0.686597 0.824446 151 127 107
-0.598172 -0.70245 0.572492 135 172 168
-0.759442 -0.377036 0.735732 107 82 58
-0.701431 -0.286256 0.727829 164 140 122
-0.622866 -0.445531 0.734424 134 99 72
-0.561537 -0.50325 0.573053 127 165 162
-0.615432 -1.05893 0.479363 11 13 16
-0.521964 -0.654153 0.680266 169 200 194
-0.702566 -0.744347 0.71533 18 24 24
-0.703257 -0.402817 0.738973 143 106 76
-0.620471 -1.18373 0.47609 39 41 48
-0.502024 -0.622982 0.552202 172 215 211
-0.610817 -1.0145 0.415892 30 32 35
-0.602407 -0.42306 0.629442 111 117 107
-0.540717 -0.523397 0.588695 115 145 140
-0.657609 -0.603879 0.771197 80 58 36
-0.577874 -0.282391 0.634214 126 105 84
-0.520464 -0.56347 0.572512 161 199 196
-0.524217 -0.562382 0.654366 108 121 109
-0.674128 -0.550204 0.70741 59 65 54
-0.622183 -0.683414 0.652586 103 133 125
-0.602102 -0.762141 0.772851 152 125 89
-0.592743 -0.480573 0.64446 102 79 55
-0.462059 -0.823735 0.371916 102 110 102
-0.616839 -0.662995 0.852772 178 171 164
-0.672802 -0.750469 0.679828 107 134 129
-0.642236 -0.703748 0.771951 124 93 70
-0.562948 -0.644671 0.632717 99 126 123
-0.706724 -0.576847 0.801627 125 95 68
-0.579856 -0.423265 0.697207 128 97 70
-0.65948 -0.542679 0.794951 142 107 79
-0.615721 -0.638738 0.612347 85 102 94
-0.473383 -0.827129 0.415347 100 103 93
-0.59894 -0.482685 0.612882 115 143 139
-0.507455 -0.519609 0.641111 152 126 100
-0.622038 -0.841676 0.573705 45 46 31
-0.683884 -0.879381 0.708784 89 79 71
-0.646136 -1.1017 0.473986 8 9 13
-0.5414 -0.722442 0.530721 53 59 47
-0.538023 -0.603768 0.555753 152 188 184
-0.524909 -0.752415 0.552986 24 26 24
-0.600334 -0.642667 0.81048 188 166 136
-0.540272 -0.466705 0.768955 174 131 70
-0.555569 -0.486003 0.771035 95 70 41
-0.700408 -0.343496 0.732092 142 107 79
-0.668706 -0.74287 0.805316 138 123 99
-0.545259 -0.307987 0.730645 139 100 73
-0.701938 -0.606718 0.789974 57 38 28
-0.640997 -0.564306 0.678897 59 67 55
-0.620067 -0.40419 0.732195 141 103 76
-0.600148 -0.463061 0.613107 98 127 123
-0.527222 -0.805516 0.553064 25 27 33
-0.556139 -0.302354 0.730037 139 100 73
-0.653892 -0.55997 0.56883 144 148 132
-0.538372 -0.482778 0.553499 174 225 224
-0.54179 -0.443769 0.569935 165 206 204
-0.621364 -0.5444 0.829112 162 137 114
-0.777973 -0.297608 0.702127 197 203 229
-0.659053 -0.72354 0.751661 114 91 75
-0.539899 -0.244581 0.670226 163 121 94
-0.541463 -0.582328 0.786787 171 136 86
-0.581495 -0.562918 0.532341 157 196 192
-0.619825 -0.904084 0.433478 21 26 18
-0.522893 -0.342951 0.712175 156 116 89
-0.544568 -0.581472 0.632899 117 143 137
-0.538441 -0.36307 0.672671 150 114 87
-0.700388 -0.303412 0.712625 141 106 79
-0.581146 -0.622991 0.792536 159 124 84
-0.646469 -0.701872 0.827131 202 190 178
-0.507846 -0.44378 0.675897 153 115 89
-0.576074 -0.343965 0.645472 121 94 73
-0.673154 -0.807249 0.655445 114 144 137
-0.657983 -0.603328 0.673541 60 78 68
-0.740989 -0.46492 0.792344 146 112 87
-0.506271 -0.462832 0.689603 125 105 89
-0.583805 -0.760981 0.530343 64 76 65
-0.560434 -0.643418 0.571736 124 153 148
-0.621292 -0.30065 0.678892 145 110 83
-0.639277 -0.786454 0.573483 79 94 84
-0.679558 -0.502179 0.794389 141 115 91
-0.583223 -0.621272 0.809938 195 176 149
-0.601531 -0.68238 0.792382 160 129 91
-0.595053 -0.796017 0.686664 90 79 71
-0.665442 -0.469446 0.566394 101 107 97
-0.601309 -0.382682 0.630123 98 103 94
-0.614501 -0.642245 0.574729 137 168 160
-0.607058 -0.811266 0.717418 104 88 77
-0.602351 -0.643846 0.692089 119 142 137
-0.640517 -0.562709 0.829774 147 124 100
-0.660346 -0.743115 0.791048 157 128 75
-0.617113 -0.439411 0.754219 148 109 81
-0.542963 -0.745427 0.551353 39 40 23
-0.622554 -1.06418 0.493537 33 32 33
-0.677572 -0.844599 0.674081 9 13 16
-0.576883 -0.260188 0.723886 158 114 86
-0.561875 -0.424406 0.612921 86 110 106
-0.543229 -0.503884 0.752906 64 43 33
-0.562146 -0.75942 0.593105 44 45 34
-0.666117 -0.861217 0.754439 124 111 100
-0.658858 -0.663857 0.812825 133 102 67
-0.74298 -0.804393 0.693677 8 11 12
-0.66084 -0.345104 0.749314 154 112 86
-0.578851 -0.663521 0.53347 115 141 136
-0.643669 -0.743867 0.806693 179 160 144
-0.683526 -0.364672 0.749985 142 108 81
-0.564918 -0.463501 0.611357 117 144 141
-0.677669 -0.722996 0.711012 14 16 17
-0.557145 -0.341159 0.67443 156 118 88
-0.66146 -0.743506 0.714624 26 27 29
-0.640169 -0.542989 0.733761 112 93 57
-0.507244 -0.614139 0.659784 134 165 157
-0.601716 -0.604782 0.555012 90 120 114
-0.619916 -0.261972 0.675788 152 115 86
-0.676888 -0.763885 0.711393 31 32 32
-0.543826 -0.603463 0.652762 106 131 124
-0.559944 -0.383038 0.634885 129 109 88
-0.582674 -0.562579 0.754181 91 63 48
-0.524127 -0.503906 0.570869 173 214 210
-0.621801 -0.563284 0.811205 139 107 64
-0.560097 -0.825242 0.418508 62 76 72
-0.600201 -0.763333 0.732677 141 129 121
-0.534526 -0.815214 0.554997 20 22 26
-0.746982 -0.786115 0.709101 21 23 24
-0.659716 -0.783972 0.672869 81 101 96
-0.449421 -0.862424 0.342261 124 136 131
-0.552104 -0.806595 0.450434 39 42 35
-0.633166 -1.21834 0.471375 40 41 48
-0.702695 -0.703655 0.715661 17 22 21
-0.620398 -0.32307 0.732977 155 114 87
-0.660955 -0.864755 0.472989 30 32 19
-0.559363 -0.902165 0.378068 102 128 123
-0.546887 -0.224785 0.632675 154 115 91
-0.446332 -0.904149 0.356173 128 141 135
-0.606633 -0.824675 0.69018 92 76 68
-0.579387 -0.363578 0.633369 113 104 89
-0.562347 -0.643924 0.61135 132 166 163
-0.67904 -0.482566 0.792235 143 115 90
-0.719263 -0.382091 0.771997 176 159 146
-0.633008 -0.513652 0.60751 115 136 136
-0.644086 -0.324459 0.673051 145 109 78
-0.579146 -0.583535 0.792347 117 85 60
-0.69982 -0.304793 0.748428 181 164 160
-0.634807 -1.16169 0.503997 105 100 96
-0.733298 -0.401136 0.737365 129 92 65
-0.680278 -0.642463 0.733023 25 25 22
-0.67111 -0.698624 0.680757 93 124 118
-0.777439 -0.247709 0.685277 213 164 129
-0.536804 -0.44267 0.673276 145 111 82
-0.624141 -0.504267 0.791992 158 117 90
-0.72013 -0.326281 0.745877 172 154 136
-0.583001 -0.844499 0.452283 20 24 16
-0.4181 -0.881825 0.393621 133 151 145
-0.541798 -0.683481 0.552209 108 128 120
-0.757992 -0.248088 0.694525 194 160 140
-0.642202 -0.843754 0.593247 47 50 27
-0.638881 -0.845953 0.492055 39 45 33
-0.562895 -0.721545 0.571788 35 36 19
-0.624621 -0.50353 0.735493 150 114 71
-0.641839 -1.10483 0.506953 56 55 52
-0.681724 -0.683362 0.753557 100 75 55
-0.742328 -0.224722 0.632584 160 119 81
-0.721045 -0.226303 0.630905 182 133 85
-0.600834 -0.85974 0.632666 30 29 32
-0.718807 -0.236855 0.639541 183 131 82
-0.780758 -0.404087 0.77322 150 114 89
-0.758571 -0.241836 0.655346 129 117 114
-0.739923 -0.2408 0.656931 138 119 107
-0.758522 -0.245346 0.672898 167 136 109
-0.701439 -0.244586 0.671354 145 109 80
-0.660189 -0.243206 0.671134 141 106 78
-0.681954 -0.264043 0.671818 132 98 70
-0.719374 -0.260175 0.675851 141 109 84
-0.700633 -0.263393 0.673293 132 99 74
-0.720786 -0.264631 0.690666 144 119 99
-0.700455 -0.283303 0.692918 140 105 78
-0.757133 -0.283003 0.695488 121 125 110
-0.779146 -0.301868 0.712854 164 132 106
-0.759955 -0.284931 0.711124 182 158 145
-0.759973 -0.303007 0.713092 150 129 109
-0.65584 -0.422737 0.713703 112 82 58
-0.640298 -0.482752 0.554224 138 176 173
-0.780134 -0.223797 0.65238 181 138 100
-0.758424 -0.225513 0.652074 158 132 111
-0.677511 -0.260688 0.658162 150 115 86
-0.662175 -0.282954 0.674245 136 99 68
-0.641559 -0.283332 0.676047 132 96 68
-0.738158 -0.260761 0.674991 102 105 108
-0.696119 -0.280943 0.676686 127 94 70
-0.661133 -0.303049 0.694789 124 91 65
-0.697298 -0.300298 0.696513 136 100 74
-0.738837 -0.303096 0.713197 126 122 107
-0.759435 -0.323422 0.71653 96 100 81
-0.759821 -0.341268 0.718572 84 85 69
-0.760074 -0.343 0.731796 147 120 97
-0.740098 -0.343163 0.732535 128 112 93
-0.619574 -0.48331 0.734134 131 97 70
-0.620698 -0.703249 0.772735 127 93 69
-0.651762 -0.370821 0.652299 108 78 51
-0.697561 -0.661955 0.752885 85 65 46
-0.62068 -0.683205 0.77176 122 89 67
-0.741485 -0.19644 0.613593 179 138 105
-0.600043 -0.784666 0.593146 49 50 27
-0.559529 -0.322849 0.636449 125 104 83
-0.738065 -0.202966 0.633279 144 117 96
-0.637014 -0.342582 0.63416 97 91 77
-0.643491 -0.863044 0.513761 28 32 19
-0.642189 -0.341651 0.653977 135 100 73
-0.739032 -0.204329 0.651832 166 135 110
-0.759197 -0.206066 0.654368 187 147 114
-0.663948 -0.843054 0.753118 121 107 90
-0.778443 -0.21961 0.668429 182 142 114
-0.719477 -0.2242 0.671487 164 147 136
-0.701104 -0.223436 0.67315 161 131 108
-0.662154 -0.321998 0.672209 121 92 67
-0.660681 -0.323409 0.694888 116 85 61
-0.65995 -0.342871 0.69498 109 78 54
-0.659973 -0.363233 0.695305 102 73 50
-0.643511 -0.363631 0.694517 101 75 52
-0.680726 -0.322859 0.693807 122 89 65
-0.663601 -0.34389 0.711054 128 95 70
-0.6626 -0.36387 0.712832 125 92 67
-0.69787 -0.339351 0.719044 138 102 75
-0.673221 -0.377655 0.719326 129 95 69
-0.69913 -0.361435 0.736495 141 106 78
-0.677573 -0.381684 0.735637 140 104 76
-0.741523 -0.384752 0.737717 100 76 52
-0.62367 -0.764107 0.734898 106 95 87
-0.761126 -0.426643 0.753827 117 86 64
-0.529806 -0.446037 0.788676 136 98 73
-0.541187 -0.583077 0.708327 108 122 118
-0.622201 -0.819959 0.690356 53 47 44
-0.617588 -0.502952 0.627961 124 121 106
-0.561817 -0.222752 0.613287 122 94 74
-0.411625 -0.883771 0.382067 148 168 162
-0.581513 -0.384003 0.631881 113 105 90
-0.6596 -0.28459 0.727224 171 127 102
-0.561161 -0.243243 0.633141 149 114 89
-0.561897 -0.262435 0.63503 123 99 78
-0.578839 -0.263843 0.633196 143 112 87
-0.561494 -0.223001 0.632903 161 122 95
-0.578966 -0.201925 0.634239 178 135 103
-0.561262 -0.282622 0.636353 112 92 73
-0.574609 -0.302069 0.651407 136 103 77
-0.576467 -0.321734 0.646743 121 94 73
-0.557116 -0.322547 0.651661 144 112 87
-0.556859 -0.342764 0.650107 135 106 81
-0.56052 -0.263319 0.652878 158 120 93
-0.559533 -0.282957 0.652902 143 109 84
-0.581625 -0.205104 0.650863 177 134 103
-0.578814 -0.222418 0.654011 173 131 101
-0.576294 -0.724651 0.514407 107 129 122
-0.579575 -0.242711 0.653669 162 123 93
-0.560749 -0.283249 0.672665 153 115 87
-0.55764 -0.302908 0.673009 149 114 85
-0.541216 -0.343204 0.672821 153 116 89
-0.600224 -0.583055 0.537738 94 124 118
-0.582343 -0.225302 0.669844 175 132 102
-0.56176 -0.263878 0.672237 163 123 94
-0.562465 -0.284183 0.690754 154 115 87
-0.558318 -0.32282 0.692871 141 107 80
-0.558903 -0.34254 0.693876 139 106 79
-0.541775 -0.343592 0.691015 150 112 85
-0.660322 -0.224294 0.689645 163 128 102
-0.640608 -0.224232 0.68895 162 126 99
-0.621266 -0.225818 0.687426 169 132 103
-0.600825 -0.243952 0.690203 170 132 102
-0.58089 -0.263655 0.691124 166 127 97
-0.660742 -0.243058 0.693439 148 112 86
-0.640598 -0.242657 0.69356 142 107 81
-0.660253 -0.246771 0.706719 179 141 117
-0.641863 -0.263715 0.709662 157 116 89
-0.620107 -0.262997 0.693412 128 97 73
-0.700052 -0.263984 0.709787 163 135 115
-0.641052 -0.284227 0.707659 139 103 77
-0.61836 -0.281637 0.710467 146 108 82
-0.600943 -0.264903 0.707817 167 125 98
-0.5993 -0.282813 0.710734 148 111 85
-0.58077 -0.283657 0.709597 165 127 99
-0.57979 -0.302473 0.711675 137 104 79
-0.561441 -0.304008 0.710263 161 123 95
-0.559997 -0.323204 0.711459 159 123 95
-0.700759 -0.284501 0.71179 151 116 90
-0.681242 -0.284123 0.710609 145 109 82
-0.662973 -0.303857 0.710668 138 102 76
-0.599286 -0.323406 0.708619 130 100 75
-0.719425 -0.305026 0.730018 162 138 119
-0.682832 -0.325343 0.728268 144 108 81
-0.663334 -0.344848 0.728854 141 104 78
-0.641544 -0.326524 0.731888 151 109 83
-0.60222 -0.862911 0.611303 24 26 30
-0.62031 -0.342633 0.731733 144 105 78
-0.601253 -0.344058 0.732918 145 105 80
-0.737862 -0.323852 0.731768 143 127 111
-0.719818 -0.324365 0.730843 147 121 99
-0.641396 -0.343371 0.733592 138 99 73
-0.603518 -0.363061 0.733014 129 92 66
-0.719284 -0.342337 0.733053 141 114 90
-0.639545 -0.359342 0.73729 135 96 69
-0.739819 -0.344093 0.752482 184 162 149
-0.700883 -0.344998 0.74898 155 126 100
-0.718716 -0.36321 0.751431 156 130 107
-0.661427 -0.363725 0.752978 137 99 72
-0.619567 -0.382554 0.753006 143 104 80
-0.761246 -0.381266 0.753257 137 101 74
-0.700741 -0.366916 0.76753 176 154 136
-0.66465 -0.385567 0.751373 147 109 82
-0.661817 -0.783041 0.752783 115 97 81
-0.699487 -0.383674 0.769608 160 134 113
-0.68005 -0.365099 0.768871 169 135 113
-0.6613 -0.383187 0.769606 147 107 79
-0.644176 -0.386503 0.766773 132 93 67
-0.662602 -0.405145 0.77134 154 115 88
-0.56515 -0.784176 0.612228 22 24 28
-0.665687 -0.861653 0.69378 30 32 33
-0.72072 -0.365111 0.768206 192 176 166
-0.68003 -0.561563 0.797886 144 107 81
-0.679565 -0.483177 0.809603 157 132 112
-0.466613 -0.965801 0.40496 93 83 74
-0.580601 -0.403272 0.592983 165 206 203
-0.580086 -0.423184 0.593113 150 187 185
-0.581484 -0.403235 0.611584 101 123 120
-0.581416 -0.44303 0.630977 99 108 99
-0.493582 -0.800081 0.36007 73 89 83
-0.600683 -0.443307 0.630322 108 118 110
-0.719261 -0.185005 0.6322 158 133 114
-0.657755 -0.622333 0.693527 86 113 106
-0.576544 -0.399938 0.644854 153 120 91
-0.557688 -0.422691 0.647073 130 101 78
-0.560712 -0.303175 0.636717 120 101 81
-0.580054 -0.542977 0.791857 65 43 33
-0.642491 -0.845748 0.769362 152 134 121
-0.737986 -0.17854 0.636696 201 159 128
-0.542298 -0.343551 0.654342 140 109 84
-0.541764 -0.363541 0.653762 148 115 89
-0.537609 -0.4029 0.652847 149 116 89
-0.542843 -0.323474 0.654637 138 106 82
-0.52626 -0.36428 0.654908 147 114 89
-0.522652 -0.363415 0.672625 143 106 80
-0.53628 -0.382718 0.672406 149 114 86
-0.523281 -0.383634 0.673098 147 111 83
-0.578996 -0.262343 0.653771 159 120 90
-0.543191 -0.303966 0.672044 153 115 89
-0.74021 -0.183248 0.653873 186 145 116
-0.60259 -0.367346 0.766977 125 89 60
-0.719685 -0.204007 0.671819 189 159 139
-0.620198 -0.243195 0.67185 155 118 88
-0.580488 -0.282647 0.673491 157 118 87
-0.658421 -0.703364 0.772153 118 88 65
-0.68109 -0.221681 0.674414 149 115 89
-0.524521 -0.364157 0.69219 154 113 85
-0.625118 -0.844691 0.435168 20 28 24
-0.637807 -1.00314 0.514708 21 25 30
-0.580209 -0.302866 0.694267 126 96 70
-0.540312 -0.363078 0.691716 149 112 84
-0.68073 -0.242533 0.694153 154 119 93
-0.600223 -0.282949 0.69421 137 106 80
-0.543019 -0.323971 0.710765 168 126 98
-0.541893 -0.343845 0.711517 165 124 96
-0.417005 -0.861493 0.374014 135 151 146
-0.680349 -0.363654 0.73252 140 105 78
-0.561208 -0.344138 0.727997 142 104 79
-0.542305 -0.364389 0.728299 152 113 86
-0.558323 -0.382078 0.731002 136 101 75
-0.541133 -0.383204 0.728705 146 109 82
-0.58267 -0.380991 0.75221 135 97 69
-0.759165 -0.404049 0.774797 145 110 85
-0.667422 -0.367995 0.765757 157 115 88
-0.602883 -0.384695 0.750523 149 110 85
-0.615541 -0.357001 0.765826 125 89 59
-0.587302 -0.388056 0.765089 137 100 69
-0.641545 -0.783199 0.713119 46 45 46
-0.719336 -0.46169 0.804096 139 102 76
-0.655535 -0.680933 0.696527 110 135 130
-0.559814 -0.502332 0.552875 162 205 201
-0.560424 -0.482778 0.553216 162 205 202
-0.561375 -0.483115 0.572271 138 177 175
-0.561136 -0.443156 0.574028 147 189 185
-0.54598 -0.383588 0.595792 148 181 175
-0.544608 -0.42399 0.597981 106 132 128
-0.564707 -0.443488 0.611552 97 123 118
-0.537497 -0.383372 0.613032 120 153 150
-0.53835 -0.403074 0.61351 107 138 135
-0.53844 -0.343585 0.613791 128 162 158
-0.581906 -0.483765 0.612065 123 150 146
-0.581688 -0.462866 0.611789 113 139 135
-0.560042 -0.442529 0.634509 112 100 82
-0.561179 -0.463412 0.633769 116 103 86
-0.542578 -0.363448 0.636391 131 112 92
-0.542482 -0.383361 0.636753 131 113 92
-0.56049 -0.402062 0.634454 112 98 80
-0.565885 -0.783302 0.55126 39 40 23
-0.546401 -0.303734 0.635589 91 84 70
-0.545563 -0.324527 0.63383 94 92 79
-0.544137 -0.343853 0.635431 115 105 88
-0.601084 -0.703509 0.671755 111 136 131
-0.599804 -0.463325 0.630327 109 116 105
-0.599354 -0.483111 0.629958 113 118 107
-0.598577 -0.503567 0.629792 115 117 105
-0.559297 -0.342672 0.636557 132 109 88
-0.586518 -0.466586 0.647906 111 87 62
-0.591963 -0.467416 0.643303 107 83 59
-0.575694 -0.442794 0.644974 99 77 56
-0.557954 -0.443234 0.647199 127 100 78
-0.556342 -0.463094 0.64625 125 98 75
-0.53582 -0.402698 0.67206 152 116 82
-0.535862 -0.422955 0.672633 155 120 85
-0.757539 -0.20388 0.669834 192 148 118
-0.538428 -0.423368 0.692733 117 89 60
-0.537579 -0.402984 0.69263 154 118 74
-0.739814 -0.244243 0.691647 196 182 178
-0.7191 -0.244951 0.691269 157 138 128
-0.64119 -0.283318 0.693935 125 93 68
-0.7754 -0.264303 0.693067 193 149 114
-0.600389 -0.32291 0.692159 124 95 69
-0.540053 -0.42262 0.711284 105 79 53
-0.540582 -0.383283 0.711144 149 113 85
-0.718391 -0.401036 0.756252 139 116 99
-0.645933 -0.406008 0.731431 129 95 70
-0.579257 -0.403412 0.731184 127 93 67
-0.665924 -0.405993 0.749871 138 103 76
-0.599839 -0.422688 0.732438 135 98 71
-0.561266 -0.442905 0.730934 142 103 70
-0.640601 -0.403349 0.754404 150 109 83
-0.600122 -0.425253 0.753086 146 107 81
-0.58212 -0.424022 0.750129 133 95 70
-0.580216 -0.442182 0.753039 136 98 71
-0.56893 -0.443628 0.745037 130 93 67
-0.779046 -0.384344 0.769092 161 127 100
-0.740428 -0.386061 0.769504 167 150 138
-0.719956 -0.40301 0.770328 137 115 99
-0.597754 -0.443306 0.753447 151 110 84
-0.582638 -0.583441 0.57343 102 135 129
-0.663957 -0.424791 0.770663 154 115 87
-0.641176 -0.423691 0.771828 156 115 85
-0.604452 -0.425145 0.770061 154 114 87
-0.602428 -0.443671 0.77187 152 112 85
-0.69983 -0.425227 0.789315 141 122 108
-0.68034 -0.423179 0.79076 156 131 113
-0.722337 -0.444161 0.790933 122 95 77
-0.664157 -0.426375 0.788333 155 118 92
-0.698632 -0.462008 0.7921 143 123 106
-0.660807 -0.443635 0.791978 162 127 101
-0.64513 -0.445566 0.78881 166 125 96
-0.603609 -0.661925 0.810108 188 167 145
-0.647245 -0.468142 0.806298 174 142 118
-0.759534 -0.186646 0.669152 210 168 143
-0.714166 -0.566365 0.796929 104 83 64
-0.537415 -0.543172 0.532456 172 221 218
-0.53605 -0.561648 0.534913 168 214 210
-0.563079 -0.562721 0.532759 171 218 213
-0.562193 -0.543379 0.554203 143 181 177
-0.561924 -0.561973 0.55527 138 174 170
-0.5796 -0.523342 0.555063 126 163 158
-0.579748 -0.543843 0.553416 114 147 142
-0.581829 -0.463621 0.554029 134 177 173
-0.582855 -0.483488 0.55398 132 174 169
-0.579951 -0.503225 0.574555 121 160 157
-0.580296 -0.542961 0.573614 106 137 132
-0.580084 -0.463162 0.57395 136 184 182
-0.579801 -0.483148 0.574316 132 178 177
-0.581332 -0.543751 0.592014 114 144 139
-0.673647 -0.419815 0.740412 135 100 73
-0.581318 -0.483347 0.59282 123 152 149
-0.581324 -0.502843 0.59254 118 148 143
-0.643916 -0.523597 0.693346 71 58 32
-0.583182 -0.54342 0.612766 111 137 131
-0.581535 -0.563074 0.612822 108 134 128
-0.581771 -0.503457 0.611556 127 157 153
-0.598067 -0.563431 0.612571 116 141 135
-0.599395 -0.562856 0.630047 111 119 108
-0.582125 -0.443151 0.611373 95 122 120
-0.58249 -0.524085 0.630387 101 113 104
-0.593353 -0.542204 0.645578 125 94 73
-0.557604 -0.48266 0.649178 116 89 66
-0.584593 -0.543327 0.647851 116 98 80
-0.541674 -0.402881 0.636307 130 110 89
-0.541381 -0.422911 0.637087 128 106 85
-0.557415 -0.503228 0.652566 129 97 73
-0.537314 -0.462489 0.651238 137 106 82
-0.558684 -0.523411 0.654662 130 98 75
-0.554009 -0.504818 0.676105 128 99 74
-0.524272 -0.423902 0.65538 147 114 88
-0.537425 -0.462674 0.67476 147 113 86
-0.494524 -1.00576 0.373755 160 187 185
-0.539011 -0.463047 0.693002 130 102 78
-0.543269 -0.284011 0.671383 156 117 91
-0.538911 -0.443098 0.692895 131 102 77
-0.560231 -0.502269 0.71154 63 63 60
-0.560334 -0.382948 0.692761 142 107 79
-0.559395 -0.46261 0.710114 90 79 62
-0.580582 -0.343091 0.692202 129 98 72
-0.580302 -0.36305 0.694297 135 103 75
-0.559141 -0.402397 0.71463 122 93 64
-0.578983 -0.462908 0.710808 85 73 50
-0.577719 -0.483494 0.712533 69 67 57
-0.705921 -0.703223 0.751738 76 56 41
-0.600706 -0.342978 0.69406 119 90 65
-0.603006 -0.503193 0.734071 79 63 44
-0.662761 -0.583579 0.732649 77 67 47
-0.583318 -0.46237 0.733419 143 104 68
-0.580459 -0.484065 0.733675 76 57 37
-0.601264 -0.485002 0.733664 149 113 68
-0.581719 -0.443708 0.733964 139 101 75
-0.636506 -0.502935 0.732869 141 106 74
-0.658332 -0.547392 0.731167 112 94 58
-0.659082 -0.5649 0.75145 69 53 35
-0.642593 -0.343319 0.712183 128 96 70
-0.637215 -0.543558 0.75237 141 109 65
-0.664709 -0.384622 0.730681 138 103 76
-0.599518 -0.383172 0.732473 141 105 78
-0.673444 -0.56572 0.749647 53 40 25
-0.64484 -0.444342 0.732578 134 101 75
-0.643736 -0.4638 0.732788 132 99 73
-0.72097 -0.603642 0.7734 74 54 34
-0.738515 -0.440071 0.75863 109 78 55
-0.701868 -0.522578 0.758882 113 79 53
-0.708475 -0.554888 0.775566 119 83 57
-0.699679 -0.442731 0.773349 130 104 84
-0.675811 -0.578403 0.768754 33 18 11
-0.75291 -0.438246 0.758962 118 109 103
-0.719402 -0.463001 0.774985 118 96 82
-0.715416 -0.500798 0.775592 127 93 69
-0.759569 -0.422122 0.77437 126 90 65
-0.740639 -0.443507 0.771261 129 107 92
-0.777859 -0.435683 0.779038 125 87 60
-0.699939 -0.523276 0.791994 135 106 83
-0.702008 -0.560139 0.797988 128 95 69
-0.759999 -0.442241 0.79326 149 110 82
-0.738136 -0.482106 0.795023 145 109 81
-0.722219 -0.484513 0.791174 150 119 99
-0.70002 -0.504634 0.79311 151 126 106
-0.716861 -0.582089 0.800052 117 87 65
-0.757826 -0.461676 0.795413 136 102 77
-0.697787 -0.562537 0.810939 123 97 77
-0.756107 -0.476825 0.802144 141 104 74
-0.701124 -0.601396 0.812273 99 83 73
-0.743392 -0.486682 0.806338 158 117 88
-0.718637 -0.484003 0.808903 139 112 91
-0.679534 -0.50344 0.811526 166 141 123
-0.679334 -0.522022 0.807888 166 147 129
-0.694468 -0.524616 0.813917 154 124 102
-0.741734 -0.503416 0.809601 162 118 90
-0.698925 -0.481186 0.80944 148 120 101
-0.679746 -0.561889 0.81326 112 94 80
-0.695265 -0.545812 0.827571 139 105 79
-0.692218 -0.559913 0.829042 134 97 70
-0.480104 -0.840004 0.466987 94 95 92
-0.529241 -0.464374 0.589939 110 148 143
-0.516554 -0.562944 0.532509 172 220 219
-0.516626 -0.583004 0.532624 159 202 200
-0.538048 -0.582452 0.535718 164 206 201
-0.53905 -0.603823 0.53447 137 168 165
-0.563592 -0.602814 0.550044 150 187 181
-0.578958 -0.60339 0.553126 108 137 131
-0.579694 -0.622819 0.552731 100 127 120
-0.580237 -0.622299 0.572491 129 167 162
-0.599311 -0.523801 0.574547 109 138 133
-0.599777 -0.543547 0.575022 99 127 121
-0.599563 -0.56319 0.574483 100 130 124
-0.597121 -0.463024 0.575202 136 177 175
-0.598037 -0.483192 0.575203 122 156 153
-0.596809 -0.623392 0.59205 137 159 149
-0.599357 -0.562894 0.592903 116 146 140
-0.598339 -0.582185 0.593579 121 146 137
-0.600679 -0.523448 0.591965 115 146 141
-0.59801 -0.582892 0.61299 112 137 129
-0.611776 -0.431501 0.582537 118 141 140
-0.613697 -0.601348 0.631966 94 116 111
-0.613724 -0.583483 0.631366 103 120 112
-0.616404 -0.563568 0.631048 111 123 114
-0.616084 -0.64688 0.639039 98 123 115
-0.599273 -0.583599 0.631047 113 120 108
-0.523702 -0.484245 0.638861 145 120 95
-0.579291 -0.603186 0.652742 95 117 110
-0.522212 -0.443826 0.637415 111 88 67
-0.507177 -0.465011 0.638985 124 95 72
-0.505378 -0.502544 0.64077 125 103 80
-0.520254 -0.5223 0.653494 135 109 86
-0.528305 -0.38435 0.640671 131 104 79
-0.507127 -0.48355 0.6727 143 107 82
-0.506139 -0.502825 0.671973 138 106 83
-0.50753 -0.464485 0.674968 146 109 84
-0.524571 -0.343621 0.657567 141 110 85
-0.523162 -0.423447 0.672227 153 116 89
-0.508265 -0.424081 0.677276 159 119 92
-0.520463 -0.503121 0.671933 133 103 80
-0.521286 -0.463192 0.672017 151 116 89
-0.520202 -0.502852 0.691085 115 105 91
-0.520799 -0.522501 0.690037 106 112 104
-0.537531 -0.501844 0.690344 100 101 89
-0.538433 -0.522781 0.691487 96 105 97
-0.561093 -0.522909 0.693189 103 100 86
-0.576003 -0.319626 0.677806 143 107 80
-0.541593 -0.462708 0.710571 89 80 66
-0.542029 -0.482087 0.710908 76 77 71
-0.619228 -0.481628 0.711562 80 57 34
-0.620517 -0.498235 0.713233 97 78 44
-0.652682 -0.528208 0.732502 134 98 51
-0.645185 -0.362493 0.710218 120 89 65
-0.600595 -0.462736 0.733593 129 94 67
-0.655422 -0.461363 0.754954 147 112 82
-0.62449 -1.04854 0.489823 30 30 30
-0.584481 -0.883559 0.472674 29 34 40
-0.580982 -0.801089 0.572858 48 49 39
-0.534257 -1.0161 0.382516 161 183 176
-0.443756 -0.944087 0.371982 128 137 130
-0.503397 -0.563401 0.533179 154 192 189
-0.504055 -0.583868 0.532879 158 197 194
-0.516696 -0.602343 0.532966 162 205 203
-0.519356 -0.602924 0.55313 162 207 205
-0.518726 -0.62247 0.553713 167 215 212
-0.519152 -0.562703 0.55356 174 223 221
-0.519289 -0.582899 0.553063 164 210 207
-0.519877 -0.54312 0.55281 175 225 223
-0.537304 -0.502767 0.554354 172 222 221
-0.539504 -0.56322 0.553893 165 209 206
-0.536729 -0.623849 0.554605 160 198 194
-0.539305 -0.603392 0.572791 126 155 151
-0.539566 -0.623064 0.572502 135 165 161
-0.539706 -0.583482 0.572642 139 174 170
-0.56074 -0.543064 0.573729 124 159 156
-0.559743 -0.582639 0.573385 124 156 152
-0.540073 -0.643236 0.57216 135 166 162
-0.560752 -0.60287 0.573448 123 154 150
-0.56046 -0.623073 0.57232 115 143 138
-0.581793 -0.642966 0.612921 121 151 148
-0.582001 -0.623669 0.612309 117 148 144
-0.597778 -0.623769 0.613841 97 123 117
-0.599114 -0.66363 0.613765 117 139 131
-0.600796 -0.66386 0.632174 93 115 108
-0.582159 -0.583474 0.612229 103 129 122
-0.600619 -0.603597 0.632594 101 119 110
-0.582409 -0.563538 0.631136 100 115 106
-0.580773 -0.623448 0.632933 94 120 115
-0.539997 -0.463347 0.613487 106 134 129
-0.561936 -0.504298 0.632837 117 111 97
-0.559024 -0.601866 0.632563 104 128 122
-0.56125 -0.524013 0.632143 112 118 108
-0.560871 -0.543292 0.632647 100 121 115
-0.560443 -0.603274 0.653506 92 119 113
-0.562551 -0.623204 0.653121 98 126 119
-0.542172 -0.543767 0.634074 124 124 110
-0.559747 -0.585045 0.65267 99 115 106
-0.523534 -0.540937 0.65362 123 109 89
-0.544529 -0.582488 0.652817 99 122 115
-0.52257 -0.46346 0.654148 150 117 91
-0.524042 -0.443755 0.654838 143 112 86
-0.542259 -0.583519 0.671835 109 131 124
-0.523333 -0.540619 0.671303 108 108 95
-0.506527 -0.51994 0.671522 116 106 90
-0.56277 -0.584387 0.673627 106 127 120
-0.542307 -0.583438 0.692765 125 134 126
-0.540642 -0.562418 0.693307 111 130 124
-0.563796 -0.603104 0.69201 123 144 138
-0.523431 -0.541079 0.689016 105 120 114
-0.560766 -0.583644 0.693009 114 136 130
-0.538961 -0.544148 0.693856 101 118 112
