ply
format ascii 1.0
comment Created by Open3D
element vertex 563
property double x
property double y
property double z
property uchar red
property uchar green
property uchar blue
end_header
0.111162 -1.08999 -1.41316 56 64 72
0.0500881 -1.15032 -1.4338 55 63 70
0.247812 -1.13103 -1.27551 37 38 46
0.191262 -1.12913 -1.33309 57 62 69
0.148951 -1.08975 -1.27042 57 62 67
0.212245 -1.07148 -1.29307 53 58 66
0.191366 -1.08945 -1.27392 54 59 66
0.251733 -1.2111 -1.33368 36 37 43
0.268815 -1.18996 -1.33381 48 47 51
0.207288 -1.1695 -1.2584 56 56 61
0.251378 -1.17034 -1.3148 34 36 43
0.110385 -1.15074 -1.35483 56 63 70
0.210896 -1.09082 -1.35392 54 60 68
0.0708274 -1.13086 -1.41368 55 64 71
0.191747 -1.09631 -1.33719 54 59 67
0.0665376 -1.19024 -1.41265 51 56 61
0.150595 -1.14935 -1.33381 58 63 70
0.130468 -1.15 -1.33329 58 63 70
0.171325 -1.15089 -1.25222 55 58 65
0.148201 -1.2117 -1.31122 54 55 59
0.131221 -1.11181 -1.27582 64 69 73
0.212206 -1.11187 -1.31655 54 60 68
0.0935614 -1.17116 -1.35566 52 57 61
0.266818 -1.16894 -1.29406 58 56 57
0.170331 -1.14953 -1.31314 59 65 70
0.1315 -1.11141 -1.39444 56 63 70
0.247987 -1.20998 -1.29473 32 31 38
0.0770827 -1.13512 -1.38001 77 82 85
0.269934 -1.10959 -1.31423 41 43 49
0.0966108 -1.11124 -1.30068 61 66 72
0.0684766 -1.17027 -1.41311 56 62 68
0.0536863 -1.21194 -1.45418 74 80 79
0.231054 -1.2111 -1.33123 40 43 48
0.170025 -1.17001 -1.29255 53 57 64
0.13207 -1.13471 -1.31737 58 64 71
0.227088 -1.20926 -1.27921 35 36 43
0.111009 -1.15054 -1.37312 56 62 70
0.117249 -1.07767 -1.29969 57 62 69
0.190124 -1.10957 -1.35389 53 59 67
0.0385236 -1.18805 -1.45199 52 58 64
0.211448 -1.06453 -1.30847 54 59 67
0.191484 -1.21212 -1.29181 45 47 54
0.0919167 -1.09532 -1.33613 63 68 73
0.0371598 -1.16839 -1.43354 54 60 66
0.0710082 -1.14742 -1.32935 118 118 112
0.0721838 -1.15111 -1.43469 63 70 74
0.190373 -1.1293 -1.31306 58 63 70
0.129201 -1.15008 -1.35397 56 62 70
0.230931 -1.12992 -1.33315 56 61 67
0.0742041 -1.13327 -1.39683 54 63 70
0.211213 -1.13069 -1.33476 55 61 67
0.189249 -1.17145 -1.27808 54 56 64
0.130577 -1.13006 -1.35372 59 65 72
0.149763 -1.09451 -1.29513 66 70 74
0.230629 -1.1481 -1.33092 61 66 68
0.109023 -1.16967 -1.3528 54 59 65
0.135542 -1.20816 -1.3143 73 76 77
0.0488034 -1.17051 -1.43414 53 60 66
0.150549 -1.09118 -1.37473 51 60 67
0.21044 -1.17015 -1.29452 48 49 56
0.23246 -1.16949 -1.3142 36 38 46
0.210464 -1.19141 -1.29518 40 40 48
0.109855 -1.09682 -1.37882 56 61 70
0.0534253 -1.1713 -1.41687 55 60 66
0.21041 -1.21133 -1.26115 44 44 49
0.130463 -1.12985 -1.37363 58 64 71
0.173778 -1.07409 -1.30567 54 59 67
0.0380767 -1.19074 -1.41982 118 115 106
0.0962427 -1.19009 -1.35585 60 63 66
0.22724 -1.11685 -1.26289 35 37 46
0.151547 -1.19135 -1.39339 63 70 72
0.112661 -1.18888 -1.33651 52 54 59
0.0893365 -1.18942 -1.3736 51 55 59
0.251568 -1.21119 -1.31639 32 32 40
0.244023 -1.0965 -1.2799 37 39 48
0.150984 -1.17047 -1.29528 49 53 59
0.152569 -1.15123 -1.29632 55 60 67
0.251113 -1.11006 -1.33367 46 51 60
0.252202 -1.14977 -1.33123 43 45 52
0.111367 -1.1321 -1.35529 56 64 71
0.189802 -1.10961 -1.33378 56 62 69
0.11128 -1.14825 -1.41493 61 67 69
0.169306 -1.17065 -1.25267 52 54 60
0.129568 -1.09021 -1.39266 55 64 72
0.154668 -1.10023 -1.34008 54 59 67
0.110345 -1.14859 -1.39458 59 65 71
0.138066 -1.21114 -1.29507 66 67 72
0.0691849 -1.13049 -1.43448 61 69 75
0.132831 -1.11149 -1.3557 60 66 73
0.0539952 -1.15113 -1.41594 56 64 70
0.11063 -1.11258 -1.37492 57 65 72
0.0391627 -1.16954 -1.47473 53 61 67
0.190644 -1.13056 -1.25517 63 65 73
0.172289 -1.09342 -1.35553 54 60 68
0.190605 -1.13155 -1.27445 64 68 74
0.148272 -1.1905 -1.30921 48 50 56
0.210867 -1.14924 -1.31252 58 63 69
0.23198 -1.19029 -1.33398 47 51 55
0.231957 -1.19021 -1.31416 34 36 43
0.23386 -1.08949 -1.29221 53 57 66
0.168956 -1.21167 -1.29238 47 50 56
0.0706193 -1.12918 -1.45301 61 69 74
0.262882 -1.18936 -1.29664 47 45 49
0.109853 -1.09276 -1.31589 82 85 86
0.108042 -1.08486 -1.32621 57 62 70
0.129984 -1.10983 -1.29281 65 70 75
0.23389 -1.17317 -1.3351 45 49 55
0.153564 -1.13145 -1.29503 61 66 72
0.232366 -1.15202 -1.2572 52 52 56
0.232067 -1.17118 -1.25513 44 44 49
0.0929377 -1.11442 -1.37534 61 67 72
0.205391 -1.09534 -1.26336 53 58 65
0.21029 -1.19062 -1.33378 60 66 69
0.0908864 -1.13271 -1.3747 56 63 70
0.0906744 -1.13014 -1.3944 55 63 70
0.0381424 -1.17039 -1.454 66 72 75
0.0796124 -1.09524 -1.42255 58 67 74
0.171733 -1.13132 -1.25489 62 65 72
0.148078 -1.081 -1.30577 55 61 69
0.116386 -1.13442 -1.33812 59 65 72
0.128387 -1.17001 -1.33186 54 59 64
0.11004 -1.16912 -1.37378 60 66 70
0.0683907 -1.1508 -1.41387 57 65 71
0.252239 -1.12915 -1.33264 43 47 56
0.25289 -1.17128 -1.33385 37 38 45
0.250565 -1.19146 -1.33409 40 41 47
0.232534 -1.15028 -1.31249 43 45 53
0.231191 -1.20998 -1.31396 35 36 44
0.230802 -1.10903 -1.33357 53 59 67
0.230125 -1.13029 -1.31313 48 53 61
0.1896 -1.211 -1.27735 48 49 57
0.231531 -1.11215 -1.3171 52 58 66
0.211085 -1.12861 -1.31197 57 62 69
0.215252 -1.17172 -1.3113 48 50 56
0.212922 -1.19244 -1.31412 47 50 55
0.214186 -1.21166 -1.31305 40 42 50
0.250421 -1.11258 -1.3175 41 45 53
0.210351 -1.08963 -1.37349 56 62 70
0.210518 -1.11139 -1.35418 53 59 67
0.210545 -1.11004 -1.33282 54 59 67
0.191194 -1.17066 -1.29334 56 60 66
0.191069 -1.14961 -1.29305 63 67 74
0.191298 -1.19116 -1.29087 47 49 57
0.190484 -1.09108 -1.3731 54 61 69
0.19149 -1.09212 -1.35525 54 60 68
0.0911669 -1.14964 -1.39347 57 63 70
0.171379 -1.15084 -1.29406 60 64 71
0.169959 -1.19039 -1.29214 47 50 57
0.108545 -1.19038 -1.35295 52 55 59
0.171293 -1.11054 -1.35295 54 60 68
0.170327 -1.11209 -1.33509 57 63 70
0.170917 -1.13029 -1.33374 57 62 70
0.170439 -1.12972 -1.3135 59 64 72
0.0876114 -1.10874 -1.33185 72 76 79
0.170815 -1.09167 -1.39444 48 55 64
0.170612 -1.08949 -1.37341 53 61 69
0.170555 -1.1107 -1.37348 53 60 68
0.152084 -1.11158 -1.3533 59 65 73
0.150507 -1.12954 -1.33338 60 66 73
0.150708 -1.13337 -1.31524 60 65 72
0.149923 -1.1501 -1.31328 57 63 69
0.148751 -1.1692 -1.31196 54 58 64
0.150785 -1.08889 -1.39335 48 56 65
0.149718 -1.11196 -1.37371 54 61 68
0.149994 -1.12968 -1.35342 58 64 71
0.131957 -1.13187 -1.33491 59 65 72
0.131574 -1.15142 -1.31552 55 60 67
0.130117 -1.17081 -1.31538 49 52 58
0.126822 -1.1913 -1.33272 64 67 72
0.131943 -1.21182 -1.33458 72 74 78
0.128711 -1.11039 -1.37413 59 67 73
0.110484 -1.17075 -1.47482 64 72 75
0.112632 -1.15035 -1.33598 54 59 65
0.112156 -1.17094 -1.33606 51 55 60
0.112134 -1.21035 -1.35722 66 70 73
0.112074 -1.0931 -1.39555 56 64 72
0.110939 -1.11115 -1.39397 57 65 72
0.108819 -1.13038 -1.37339 56 63 71
0.134267 -1.11632 -1.33838 63 69 74
0.0945747 -1.09287 -1.41647 57 65 73
0.090886 -1.11076 -1.41342 58 66 73
0.0926546 -1.11297 -1.39482 58 66 73
0.0897463 -1.15091 -1.37526 55 62 68
0.089208 -1.16918 -1.3738 52 57 64
0.0926643 -1.20843 -1.37547 58 62 65
0.0898561 -1.11066 -1.43453 56 64 72
0.0709999 -1.1101 -1.43382 58 66 73
0.0746788 -1.11372 -1.41713 57 66 73
0.0719992 -1.15175 -1.39564 54 61 68
0.0717255 -1.17091 -1.39555 54 59 65
0.0722824 -1.19083 -1.39608 52 56 61
0.0698237 -1.10977 -1.45421 60 68 75
0.0536193 -1.1313 -1.43365 56 65 72
0.0542496 -1.19131 -1.41515 50 55 61
0.0487357 -1.21119 -1.4339 52 57 61
0.0541317 -1.12972 -1.47112 60 67 74
0.0533893 -1.13158 -1.45418 57 66 73
0.0493643 -1.19104 -1.43217 56 61 65
0.0473493 -1.15146 -1.47373 63 70 76
0.0476192 -1.14943 -1.45277 58 66 72
0.0396459 -1.15068 -1.45146 56 64 71
0.0380146 -1.20998 -1.45293 56 61 62
0.110182 -1.11033 -1.41407 55 63 70
0.132588 -1.19066 -1.31639 52 55 59
0.22828 -1.16992 -1.2758 41 42 49
0.170472 -1.13298 -1.39324 62 66 68
0.17221 -1.17189 -1.27768 52 56 62
0.167862 -1.14674 -1.33117 57 62 69
0.169196 -1.12947 -1.35486 57 63 70
0.264413 -1.15085 -1.297 55 53 56
0.190258 -1.19143 -1.27668 52 53 60
0.188958 -1.05781 -1.29997 54 59 66
0.151504 -1.17182 -1.35291 69 74 75
0.251158 -1.0945 -1.31612 51 55 64
0.0735056 -1.15185 -1.37683 60 65 71
0.0765991 -1.10874 -1.31882 63 68 69
0.0401653 -1.15814 -1.42283 54 63 70
0.211682 -1.11011 -1.29671 55 60 67
0.113242 -1.09271 -1.29422 61 66 71
0.209564 -1.1316 -1.25721 57 58 65
0.153808 -1.10984 -1.29159 69 72 76
0.0514468 -1.21182 -1.39615 58 61 64
0.2095 -1.21256 -1.29439 38 38 46
0.172032 -1.21074 -1.27777 52 54 60
0.226737 -1.15153 -1.27684 46 47 53
0.133542 -1.17002 -1.29643 53 55 60
0.249469 -1.16977 -1.29459 39 39 44
0.133358 -1.09307 -1.2788 59 64 69
0.231378 -1.11077 -1.29419 50 55 63
0.0901846 -1.17025 -1.39493 58 65 70
0.190925 -1.14619 -1.33644 59 63 67
0.19248 -1.11264 -1.31598 56 62 70
0.152264 -1.1909 -1.29405 47 49 55
0.0752993 -1.17225 -1.45549 69 75 77
0.13009 -1.09156 -1.29366 66 71 74
0.0950037 -1.16336 -1.31894 48 48 55
0.159942 -1.09308 -1.2618 58 62 66
0.248981 -1.13243 -1.31683 38 41 49
0.153125 -1.18837 -1.2587 57 59 64
0.149315 -1.14722 -1.35431 57 62 68
0.0957339 -1.13629 -1.35796 56 62 70
0.135214 -1.09939 -1.36268 53 59 67
0.231192 -1.09198 -1.27659 49 52 61
0.0725237 -1.20957 -1.39605 53 57 61
0.0783798 -1.0971 -1.31997 68 71 71
0.264101 -1.13133 -1.29802 40 40 47
0.0397806 -1.15278 -1.46929 43 51 58
0.126941 -1.09124 -1.30877 62 67 73
0.190291 -1.15167 -1.27712 64 67 74
0.191564 -1.11012 -1.25929 64 66 72
0.170386 -1.12896 -1.27462 64 68 74
0.167166 -1.07357 -1.29461 53 58 66
0.190074 -1.12939 -1.3718 57 62 67
0.228558 -1.13148 -1.29604 49 53 60
0.0631768 -1.12436 -1.34972 107 106 102
0.0559375 -1.13338 -1.4179 64 71 76
0.247011 -1.174 -1.27815 43 44 48
0.0560138 -1.13736 -1.35472 157 150 133
0.0559067 -1.14814 -1.35564 86 87 86
0.09502 -1.14111 -1.29877 63 68 72
0.0781955 -1.11691 -1.37332 72 75 79
0.209907 -1.13268 -1.29656 59 64 71
0.210452 -1.09392 -1.3365 54 59 68
0.178056 -1.07735 -1.36417 53 58 69
0.151022 -1.20856 -1.27441 59 61 65
0.0971974 -1.09396 -1.39633 56 64 71
0.129799 -1.19125 -1.3568 66 71 73
0.108635 -1.11019 -1.31108 62 67 73
0.13595 -1.21125 -1.27664 68 68 69
0.250979 -1.15111 -1.31712 33 35 43
0.23133 -1.09233 -1.33556 54 59 67
0.211003 -1.15033 -1.29418 55 59 67
0.191475 -1.13241 -1.29575 62 67 74
0.189953 -1.22984 -1.277 47 48 55
0.17255 -1.11439 -1.31674 58 63 70
0.172039 -1.13379 -1.29676 61 66 73
0.171702 -1.15166 -1.27654 63 67 73
0.171896 -1.19044 -1.2771 50 53 59
0.173556 -1.07598 -1.37765 54 61 70
0.151688 -1.21035 -1.29415 50 52 58
0.153849 -1.0966 -1.35726 54 61 69
0.151285 -1.11278 -1.3365 58 63 71
0.137419 -1.18728 -1.29828 46 48 54
0.25215 -1.08966 -1.29266 43 45 55
0.131777 -1.09508 -1.3769 55 63 70
0.0753507 -1.14956 -1.31913 62 64 68
0.112996 -1.11506 -1.35764 59 65 71
0.0940832 -1.15108 -1.3557 52 58 65
0.0994104 -1.16988 -1.3388 48 51 58
0.0896576 -1.2112 -1.39475 71 76 79
0.0766754 -1.09536 -1.43625 58 67 74
0.0739815 -1.17175 -1.37627 56 59 64
0.058319 -1.11558 -1.43536 62 70 77
0.0525547 -1.2113 -1.4166 53 57 61
0.211305 -1.1122 -1.26135 53 55 64
0.0567594 -1.11385 -1.45231 59 67 74
0.0379002 -1.15437 -1.43865 57 63 70
0.0369714 -1.18883 -1.43284 58 61 66
0.172332 -1.09886 -1.33661 53 58 66
0.151259 -1.11607 -1.31594 63 67 73
0.171271 -1.15029 -1.35306 66 70 72
0.191401 -1.11219 -1.29491 60 64 71
0.132676 -1.1724 -1.37542 63 69 71
0.133228 -1.14996 -1.27461 61 64 68
0.156363 -1.0807 -1.30443 54 60 68
0.173734 -1.1949 -1.31736 64 68 70
0.229781 -1.15121 -1.29717 42 44 51
0.170593 -1.08953 -1.29313 53 58 65
0.249936 -1.19248 -1.35431 53 57 60
0.193117 -1.08406 -1.28946 54 59 66
0.0630276 -1.15393 -1.35035 76 77 78
0.248501 -1.1901 -1.29669 33 33 40
0.157148 -1.07964 -1.37965 51 57 68
0.0898316 -1.13177 -1.45342 65 72 76
0.197651 -1.06501 -1.3107 53 58 66
0.271112 -1.19059 -1.31515 56 54 55
0.169993 -1.08971 -1.27159 54 58 63
0.151625 -1.07747 -1.27979 54 59 67
0.078228 -1.11814 -1.39644 101 103 100
0.131778 -1.07364 -1.29333 56 61 68
0.2307 -1.07998 -1.33674 57 63 70
0.130338 -1.14762 -1.37464 59 65 70
0.228479 -1.13163 -1.2764 44 46 53
0.251806 -1.18994 -1.31525 32 33 41
0.228952 -1.17033 -1.29527 45 47 53
0.229255 -1.19045 -1.29454 36 36 44
0.228556 -1.21051 -1.29631 29 28 37
0.111813 -1.21159 -1.39406 63 69 72
0.170568 -1.11545 -1.29384 57 61 67
0.0882177 -1.12964 -1.41369 56 64 71
0.0734592 -1.18791 -1.37756 54 57 62
0.0537047 -1.19284 -1.45379 64 70 73
0.270051 -1.15081 -1.31315 49 48 52
0.107446 -1.13483 -1.31373 64 68 73
0.188278 -1.21056 -1.25654 42 42 50
0.150759 -1.12992 -1.39483 55 62 66
0.209152 -1.13187 -1.27526 60 65 71
0.207894 -1.15016 -1.27436 55 57 64
0.191155 -1.11028 -1.37468 53 59 68
0.170389 -1.10944 -1.39338 51 58 66
0.149572 -1.10962 -1.39413 50 57 65
0.110704 -1.12855 -1.39189 56 63 71
0.11009 -1.13264 -1.41428 61 68 72
0.09076 -1.11011 -1.45395 60 68 75
0.0911893 -1.13063 -1.43384 61 68 72
0.0694178 -1.13015 -1.47548 73 80 84
0.0510144 -1.17338 -1.47299 88 90 89
0.0917227 -1.14989 -1.43268 59 66 69
0.211441 -1.15125 -1.33149 61 66 68
0.208408 -1.12865 -1.35256 63 67 72
0.189276 -1.14951 -1.31303 59 64 70
0.190685 -1.12951 -1.3526 60 65 71
0.170285 -1.13004 -1.37441 60 65 70
0.169848 -1.16896 -1.30907 59 64 68
0.150742 -1.13029 -1.37389 55 61 68
0.145336 -1.16837 -1.33155 58 63 68
0.130383 -1.13276 -1.39395 58 64 69
0.125736 -1.16676 -1.35003 58 63 69
0.130099 -1.2092 -1.35318 61 66 70
0.0894462 -1.14986 -1.41433 58 65 71
0.0897216 -1.19059 -1.39415 61 67 70
0.0699142 -1.14852 -1.45246 83 88 88
0.0687894 -1.1688 -1.43483 69 74 76
0.0501919 -1.17234 -1.4541 70 74 77
0.190471 -1.11176 -1.27442 59 63 69
0.0963136 -1.15391 -1.33494 59 64 69
0.11215 -1.07544 -1.39831 57 62 72
0.207745 -1.19184 -1.25986 53 54 59
0.116246 -1.2074 -1.33906 51 54 56
0.242964 -1.15263 -1.28389 31 31 39
0.150046 -1.13062 -1.27276 61 66 71
0.270548 -1.16919 -1.3136 61 57 60
0.071886 -1.15094 -1.47283 73 77 77
0.131412 -1.15105 -1.29427 58 62 68
0.269696 -1.13126 -1.31601 42 42 48
0.264744 -1.11152 -1.29725 39 41 48
0.26398 -1.21371 -1.30243 53 48 52
0.249951 -1.11102 -1.29686 38 41 49
0.24933 -1.13165 -1.29251 48 49 55
0.248072 -1.15216 -1.29548 37 38 45
0.247374 -1.1898 -1.27765 44 44 50
0.23182 -1.09537 -1.31461 52 57 65
0.228461 -1.18988 -1.27748 37 38 44
0.208978 -1.17014 -1.27411 46 47 54
0.208169 -1.19086 -1.27435 46 46 53
0.208602 -1.21042 -1.27357 40 40 48
0.150957 -1.14972 -1.27305 59 61 67
0.15174 -1.17023 -1.2763 52 55 61
0.152004 -1.1915 -1.27596 51 54 60
0.113134 -1.17076 -1.31617 56 59 63
0.113522 -1.18812 -1.31981 49 51 55
0.0941256 -1.20901 -1.36229 54 56 58
0.169143 -1.194 -1.25482 53 55 62
0.111507 -1.15251 -1.31502 61 64 70
0.217812 -1.08005 -1.33837 55 60 68
0.0531759 -1.1721 -1.39499 51 56 63
0.131147 -1.15119 -1.3964 61 67 68
0.11325 -1.17079 -1.39569 63 69 70
0.110818 -1.19223 -1.3743 64 70 73
0.0916827 -1.13315 -1.47306 76 81 81
0.0894957 -1.17113 -1.41495 62 69 70
0.0729837 -1.2102 -1.38161 56 60 61
0.190121 -1.07709 -1.35626 55 60 68
0.13539 -1.19225 -1.27656 68 71 73
0.0955641 -1.18866 -1.34152 55 57 60
0.0528849 -1.15059 -1.39902 55 61 69
0.0528183 -1.19105 -1.39666 59 61 65
0.0392043 -1.17259 -1.41984 52 58 66
0.174342 -1.09416 -1.26059 56 58 67
0.0888922 -1.11277 -1.31641 69 73 76
0.0920684 -1.09643 -1.31222 61 67 72
0.193636 -1.09883 -1.32053 54 58 66
0.230281 -1.11161 -1.27018 48 50 57
0.210934 -1.11468 -1.27491 59 63 69
0.209732 -1.09742 -1.31687 53 58 66
0.207203 -1.14995 -1.25865 58 59 64
0.188691 -1.14978 -1.25298 51 53 62
0.189485 -1.1702 -1.25316 50 51 58
0.187079 -1.18961 -1.25491 45 46 54
0.171083 -1.11255 -1.27421 62 66 71
0.154095 -1.13548 -1.25844 59 61 68
0.15314 -1.1524 -1.25696 52 54 61
0.152309 -1.17222 -1.25809 57 60 64
0.155075 -1.20884 -1.25917 57 58 63
0.134027 -1.13161 -1.29494 61 66 71
0.13344 -1.1311 -1.27823 63 68 73
0.133988 -1.16955 -1.2757 51 52 58
0.190194 -1.07385 -1.27979 53 58 65
0.21948 -1.10041 -1.30408 53 58 66
0.265921 -1.09973 -1.30273 41 43 52
0.11091 -1.1304 -1.29511 64 69 74
0.245788 -1.10967 -1.27724 36 38 47
0.246213 -1.07809 -1.29993 57 61 69
0.230838 -1.13011 -1.25846 37 37 45
0.230806 -1.18338 -1.25694 62 64 66
0.229425 -1.07275 -1.29537 54 59 66
0.210901 -1.08971 -1.27343 53 57 65
0.194535 -1.06968 -1.29484 53 58 65
0.194512 -1.05428 -1.31207 56 61 69
0.168686 -1.10991 -1.25945 58 61 67
0.150457 -1.1109 -1.27532 63 67 72
0.139181 -1.1458 -1.26395 50 52 60
0.111663 -1.11111 -1.29389 64 69 72
0.114343 -1.14976 -1.29528 55 57 62
0.0877416 -1.13275 -1.3154 60 65 70
0.0911114 -1.14674 -1.31538 65 69 72
0.0860884 -1.12714 -1.32939 68 72 74
0.0789482 -1.12998 -1.32697 104 106 103
0.0662134 -1.11646 -1.35098 88 90 90
0.221561 -1.07991 -1.27967 52 57 65
0.209544 -1.07496 -1.28056 53 58 65
0.205451 -1.05874 -1.29913 55 60 68
0.191786 -1.09396 -1.26103 56 60 66
0.171889 -1.07559 -1.2775 54 59 66
0.153776 -1.1053 -1.26032 57 62 67
0.149541 -1.06847 -1.29049 54 59 67
0.150919 -1.06081 -1.29725 53 59 67
0.118743 -1.12716 -1.28105 71 75 77
0.100246 -1.09181 -1.30224 57 62 70
0.0950739 -1.13125 -1.29687 65 69 72
0.0748173 -1.12885 -1.31595 56 61 68
0.0989032 -1.07924 -1.39876 57 63 71
0.096011 -1.09629 -1.38017 55 61 68
0.0934826 -1.1119 -1.3574 73 77 79
0.221187 -1.22244 -1.26285 34 35 39
0.0916365 -1.1911 -1.47436 65 74 76
0.0530554 -1.19297 -1.47363 88 91 86
0.266278 -1.17345 -1.28148 52 53 54
0.286318 -1.15783 -1.2931 109 106 100
0.249397 -1.20983 -1.28155 47 48 51
0.0697245 -1.16872 -1.35641 63 67 66
0.0912027 -1.16979 -1.47284 73 80 81
0.120531 -1.21611 -1.322 67 71 70
0.0800959 -1.20807 -1.36021 51 55 54
0.0898652 -1.20989 -1.45528 61 70 73
0.245537 -1.1524 -1.25979 59 59 59
0.138342 -1.1913 -1.25851 74 80 80
0.150074 -1.16955 -1.39545 58 65 68
0.273039 -1.15034 -1.26514 60 60 59
0.0569996 -1.16536 -1.35361 123 122 114
0.191392 -1.17109 -1.37587 59 66 69
0.198268 -1.16242 -1.30732 68 71 72
0.0895353 -1.16889 -1.45475 66 73 76
0.109352 -1.15194 -1.45392 69 76 78
0.0906138 -1.18968 -1.45439 64 73 74
0.152191 -1.17339 -1.37694 58 65 67
0.0725297 -1.19252 -1.43714 61 68 71
0.0868813 -1.20791 -1.47127 63 73 76
0.131623 -1.18928 -1.3938 62 69 72
0.0923061 -1.15283 -1.45555 69 76 77
0.0713756 -1.21176 -1.47472 72 79 80
0.191273 -1.17173 -1.35433 61 66 69
0.0576048 -1.17469 -1.38425 132 130 119
0.0912745 -1.19244 -1.41545 60 67 70
0.173492 -1.17284 -1.35795 60 66 68
0.190917 -1.19144 -1.39453 64 72 74
0.115491 -1.1147 -1.27793 62 66 67
0.0905286 -1.15031 -1.47332 78 84 84
0.112973 -1.15268 -1.43706 64 71 73
0.1712 -1.17267 -1.33982 68 72 73
0.131809 -1.1194 -1.31516 75 82 80
0.193018 -1.15337 -1.35708 65 69 69
0.170978 -1.17042 -1.37443 59 65 69
0.0907401 -1.19093 -1.43296 63 70 72
0.10972 -1.16906 -1.43217 64 71 74
0.171051 -1.17154 -1.41397 61 70 71
0.0710848 -1.21051 -1.45473 68 76 78
0.171468 -1.19088 -1.37504 62 68 70
0.171472 -1.15039 -1.39505 62 68 69
0.191902 -1.192 -1.33564 62 67 70
0.150948 -1.14966 -1.39289 60 65 66
0.0907807 -1.21193 -1.43357 63 70 73
0.152692 -1.19045 -1.33796 65 68 70
0.15121 -1.20943 -1.33484 64 69 72
0.288001 -1.16581 -1.29132 99 96 92
0.248435 -1.17406 -1.25549 50 51 52
0.246186 -1.13023 -1.25662 80 80 78
0.135514 -1.16115 -1.26322 86 90 89
0.211271 -1.17376 -1.33759 63 69 71
0.190155 -1.21188 -1.33425 65 71 73
0.211695 -1.15368 -1.35486 65 70 70
0.190128 -1.17126 -1.33519 67 73 74
0.170705 -1.19139 -1.33565 65 69 72
0.189951 -1.15054 -1.37371 65 70 71
0.151082 -1.152 -1.37461 62 67 68
0.080575 -1.19003 -1.35651 76 83 81
0.0704846 -1.19022 -1.47387 81 87 86
0.170562 -1.2099 -1.37463 60 67 71
0.17027 -1.17064 -1.39413 60 67 69
0.172248 -1.19168 -1.3968 63 70 72
0.131607 -1.17046 -1.43571 66 74 76
0.129766 -1.17061 -1.41299 62 69 72
0.110508 -1.17239 -1.4157 61 68 71
0.109651 -1.19108 -1.41355 62 70 72
0.0925999 -1.1732 -1.43591 62 70 73
0.0719389 -1.17124 -1.47439 79 84 83
0.0712257 -1.19162 -1.45376 76 83 83
0.191987 -1.19248 -1.31482 62 67 68
0.171421 -1.15293 -1.37527 59 65 66
0.0954316 -1.20422 -1.34361 52 56 55
0.191053 -1.20992 -1.31367 63 67 70
0.170163 -1.19061 -1.35472 61 67 71
0.151288 -1.19221 -1.3567 61 67 70
0.132465 -1.17249 -1.39494 60 67 69
0.131163 -1.19085 -1.37456 63 69 73
0.131036 -1.21055 -1.37488 60 66 69
0.131018 -1.15307 -1.41597 60 67 70
0.11206 -1.19009 -1.39511 61 68 71
0.231752 -1.17073 -1.35264 58 63 65
0.210917 -1.17072 -1.3527 60 66 68
0.150619 -1.19119 -1.3723 61 69 71
0.105723 -1.20788 -1.45107 62 71 74
0.191026 -1.18945 -1.35085 60 66 68
0.264128 -1.18234 -1.28352 38 38 36
0.128879 -1.18834 -1.45331 66 74 78
0.111881 -1.21047 -1.43557 62 70 73
0.110786 -1.19191 -1.45427 62 71 74
0.110818 -1.1719 -1.45282 64 73 75
0.192943 -1.19259 -1.37454 63 70 73
0.190518 -1.172 -1.39493 62 70 72
0.111814 -1.19048 -1.43572 64 72 75
0.109981 -1.18859 -1.47101 69 77 80
0.0894487 -1.18907 -1.49238 72 80 82
