ply
format ascii 1.0
comment Created by Open3D
element vertex 474
property double x
property double y
property double z
property uchar red
property uchar green
property uchar blue
end_header
4.75265 -1.35525 2.86561 27 28 28
4.75291 -1.31516 2.70327 30 31 32
4.87088 -1.3694 2.94602 45 46 48
4.6906 -1.35315 2.66673 60 57 53
4.80874 -1.30937 2.7867 38 38 38
4.79009 -1.34958 2.94522 37 37 38
4.68997 -1.35111 2.68524 54 51 48
4.79001 -1.30691 2.91033 61 62 64
4.75174 -1.32708 2.84528 29 29 30
4.77193 -1.3535 2.78549 39 39 38
4.82903 -1.32774 2.84748 18 19 21
4.81039 -1.28669 2.92549 43 43 44
4.79786 -1.29629 2.91424 45 46 48
4.77134 -1.35169 2.76528 48 47 44
4.85181 -1.35341 2.8456 26 26 28
4.75354 -1.31517 2.80445 33 33 33
4.73062 -1.37185 2.74584 37 35 32
4.74881 -1.38919 2.72604 40 37 35
4.75186 -1.32597 2.86476 32 32 35
4.83088 -1.3678 2.885 44 44 45
4.87172 -1.31307 2.88456 20 21 22
4.77273 -1.31099 2.86327 43 44 46
4.85384 -1.33466 2.82384 32 33 35
4.82652 -1.31034 2.86556 17 18 21
4.75083 -1.3734 2.74424 40 38 36
4.831 -1.35607 2.90457 33 35 36
4.77324 -1.3138 2.87759 42 43 44
4.73152 -1.35143 2.66346 42 40 39
4.74844 -1.29205 2.74063 37 39 42
4.71297 -1.29799 2.7391 27 25 22
4.79049 -1.38776 2.82727 22 23 24
4.77647 -1.33369 2.90551 34 36 38
4.86911 -1.33636 2.84611 14 16 18
4.69216 -1.31665 2.72598 44 42 40
4.73059 -1.31533 2.6786 26 25 26
4.73201 -1.38852 2.68654 33 31 28
4.71114 -1.33008 2.76509 50 48 46
4.75061 -1.38942 2.80709 15 14 13
4.73094 -1.37288 2.84587 30 29 28
4.75722 -1.31598 2.82808 36 36 36
4.75375 -1.35158 2.84531 20 21 22
4.73019 -1.34942 2.80609 26 26 26
4.81285 -1.29682 2.82506 36 36 37
4.73701 -1.3201 2.76445 41 39 37
4.83133 -1.35211 2.86467 37 39 39
4.75085 -1.37091 2.82496 26 26 26
4.75087 -1.38691 2.786 23 20 20
4.88875 -1.37175 2.88451 36 39 40
4.82982 -1.3556 2.88507 49 52 53
4.7483 -1.35022 2.80634 28 28 27
4.83099 -1.29383 2.82437 51 52 53
4.71226 -1.3913 2.74535 28 25 23
4.8423 -1.29621 2.84534 19 20 22
4.7678 -1.32802 2.76706 47 46 45
4.73129 -1.33151 2.66643 25 25 25
4.80976 -1.32753 2.90692 46 46 48
4.83188 -1.38642 2.90635 32 33 35
4.7286 -1.3901 2.72571 30 27 25
4.84623 -1.31295 2.92934 28 29 30
4.76885 -1.38379 2.72794 43 41 37
4.7509 -1.33109 2.80604 35 35 35
4.71264 -1.31516 2.74429 49 48 47
4.75119 -1.38941 2.86511 43 42 40
4.77007 -1.37096 2.88462 38 39 38
4.85164 -1.368 2.90445 30 31 33
4.75036 -1.33076 2.70613 28 27 27
4.87097 -1.37001 2.9257 42 43 46
4.80963 -1.36583 2.78715 34 34 34
4.85201 -1.36926 2.84534 31 32 33
4.85037 -1.35348 2.82586 36 37 38
4.70906 -1.33058 2.68343 32 32 33
4.85254 -1.38631 2.92553 33 35 37
4.78999 -1.35148 2.80536 33 34 35
4.77262 -1.33401 2.86446 26 27 30
4.73241 -1.40511 2.80914 22 22 20
4.83175 -1.35533 2.82534 33 34 35
4.83119 -1.31254 2.94576 28 28 28
4.73344 -1.32712 2.74714 48 46 44
4.79135 -1.33025 2.82345 27 27 29
4.79134 -1.37134 2.94534 44 45 45
4.7307 -1.37172 2.82595 24 23 22
4.73906 -1.31715 2.77924 25 25 25
4.71083 -1.35491 2.72441 37 34 32
4.77495 -1.33561 2.88208 30 31 34
4.80951 -1.38853 2.92578 45 46 47
4.80474 -1.28593 2.91179 26 28 30
4.83043 -1.29088 2.80747 47 47 46
4.77152 -1.37276 2.76508 32 31 29
4.81159 -1.31201 2.86463 20 21 23
4.89304 -1.33442 2.9028 25 27 27
4.8082 -1.35212 2.82485 24 26 27
4.89006 -1.33503 2.86717 11 13 15
4.84418 -1.38321 2.83474 24 25 27
4.71295 -1.35272 2.82479 24 23 23
4.68844 -1.3692 2.70623 53 51 48
4.71124 -1.32937 2.66359 15 15 15
4.81138 -1.35125 2.92618 25 27 29
4.73575 -1.3303 2.70529 35 35 35
4.85043 -1.38421 2.86784 34 36 38
4.75028 -1.3316 2.78575 43 42 41
4.73042 -1.36926 2.68543 45 42 39
4.69258 -1.33255 2.76178 41 39 37
4.82951 -1.38309 2.81462 23 25 26
4.84546 -1.29969 2.93229 25 26 28
4.69074 -1.39203 2.7055 44 41 38
4.78972 -1.38928 2.88431 43 43 42
4.78916 -1.33121 2.8457 30 30 32
4.84589 -1.30437 2.90541 28 31 32
4.75055 -1.33095 2.68542 19 18 18
4.74983 -1.32993 2.74595 44 43 42
4.79006 -1.38973 2.92437 44 45 44
4.82655 -1.3865 2.8655 28 30 32
4.74847 -1.31226 2.74773 30 30 31
4.84786 -1.32405 2.88655 35 37 38
4.78868 -1.38472 2.81159 7 8 10
4.71019 -1.38922 2.82678 23 22 19
4.8517 -1.36884 2.92571 26 27 28
4.8671 -1.38397 2.9074 45 48 49
4.76787 -1.32667 2.8066 33 34 34
4.75249 -1.3515 2.70494 42 40 38
4.75021 -1.37005 2.70743 40 38 36
4.73062 -1.39264 2.82655 20 19 17
4.83127 -1.31076 2.80456 27 27 28
4.81102 -1.3139 2.88595 27 28 30
4.81047 -1.37025 2.90463 40 41 42
4.75202 -1.37155 2.78664 31 30 28
4.81338 -1.35499 2.90426 40 41 43
4.81081 -1.37135 2.8658 32 32 34
4.79149 -1.33214 2.94432 41 39 37
4.75135 -1.38456 2.76625 26 24 23
4.76085 -1.38384 2.69449 22 20 17
4.79312 -1.33452 2.92526 34 35 37
4.76934 -1.35189 2.72536 41 39 37
4.7476 -1.35143 2.78548 38 37 36
4.79135 -1.37119 2.82563 22 23 24
4.75856 -1.31758 2.8666 38 39 39
4.76806 -1.38633 2.80623 16 16 16
4.69552 -1.32019 2.75945 54 52 51
4.79063 -1.35047 2.78518 31 32 32
4.71055 -1.35111 2.68709 50 48 45
4.76976 -1.34951 2.88618 28 29 31
4.83014 -1.36727 2.86585 33 34 35
4.8908 -1.34957 2.92528 36 37 38
4.78915 -1.38824 2.86379 31 31 31
4.83045 -1.32719 2.88438 36 37 38
4.71185 -1.37474 2.84446 26 25 24
4.75203 -1.35408 2.92538 53 53 51
4.83143 -1.38679 2.84582 19 21 23
4.81034 -1.36948 2.84627 25 26 27
4.69118 -1.32996 2.66591 36 36 35
4.72573 -1.29611 2.7298 13 16 17
4.87058 -1.3695 2.90635 47 49 51
4.73434 -1.33286 2.68595 31 31 31
4.85004 -1.31027 2.88327 16 18 19
4.8276 -1.36777 2.82343 33 34 35
4.85616 -1.3151 2.94214 35 35 33
4.84842 -1.30887 2.82492 20 21 22
4.81065 -1.3885 2.94527 44 46 45
4.81159 -1.39035 2.86643 26 27 28
4.89147 -1.35312 2.88565 31 33 34
4.79282 -1.31456 2.84527 25 26 28
4.85128 -1.35358 2.90698 39 41 42
4.83087 -1.29529 2.84625 26 28 29
4.72874 -1.31348 2.74247 33 33 33
4.73983 -1.33995 2.84178 27 27 27
4.84558 -1.29432 2.8638 24 26 28
4.87061 -1.33232 2.86636 7 8 10
4.77117 -1.36915 2.92551 50 50 48
4.83122 -1.38502 2.82881 29 32 33
4.69764 -1.31752 2.74202 52 50 49
4.83299 -1.38941 2.94499 37 39 39
4.87107 -1.35297 2.84558 24 25 27
4.71287 -1.32908 2.7492 40 38 35
4.76955 -1.37015 2.8253 22 22 23
4.7157 -1.32077 2.67823 26 28 28
4.81058 -1.32895 2.83021 32 33 33
4.79152 -1.33261 2.78517 34 34 34
4.83045 -1.36904 2.80543 22 22 23
4.87073 -1.38567 2.9282 42 45 46
4.83073 -1.29658 2.88694 11 12 14
4.81276 -1.38812 2.90636 52 53 53
4.84871 -1.38677 2.90609 24 27 29
4.85021 -1.32501 2.90421 38 40 41
4.77329 -1.31087 2.74738 31 31 32
4.8248 -1.3279 2.92575 34 36 38
4.84951 -1.35366 2.88503 46 47 47
4.83304 -1.33245 2.80257 23 24 25
4.83007 -1.36816 2.90484 37 38 40
4.81338 -1.29818 2.84563 20 21 23
4.84947 -1.36797 2.86536 39 40 41
4.79282 -1.3344 2.90408 35 36 38
4.87202 -1.35047 2.90555 35 37 38
4.78992 -1.38939 2.84577 24 24 25
4.70977 -1.32066 2.66889 4 6 6
4.76972 -1.37065 2.94555 45 46 45
4.88283 -1.31753 2.88645 25 28 28
4.79062 -1.3303 2.86635 35 36 38
4.81216 -1.27952 2.91281 16 19 22
4.73047 -1.33425 2.72668 52 50 48
4.7727 -1.35332 2.8054 32 33 33
4.83817 -1.29879 2.92576 33 34 36
4.749 -1.35128 2.76477 41 39 37
4.81073 -1.35249 2.84599 30 32 33
4.87347 -1.32039 2.89982 16 20 20
4.85097 -1.38599 2.88827 26 29 31
4.79162 -1.3692 2.78486 30 29 28
4.77913 -1.29769 2.87356 49 50 54
4.73475 -1.33328 2.82277 35 35 35
4.77056 -1.3725 2.74666 39 37 35
4.68038 -1.32615 2.68079 56 54 51
4.72928 -1.37015 2.8048 27 27 25
4.72998 -1.35037 2.72517 39 37 35
4.72792 -1.40946 2.82659 22 18 14
4.81057 -1.3303 2.96499 36 36 36
4.79577 -1.33457 2.96267 41 40 37
4.77237 -1.35127 2.94623 38 38 36
4.81391 -1.31223 2.94739 37 35 30
4.81051 -1.33243 2.94463 30 29 28
4.81376 -1.29311 2.94538 46 45 44
4.77297 -1.33853 2.93168 45 35 14
4.81267 -1.3128 2.92401 31 27 23
4.79124 -1.31431 2.92402 51 46 40
4.84956 -1.35372 2.94674 39 39 38
4.81098 -1.35445 2.9465 36 36 37
4.87273 -1.31505 2.94684 45 45 45
4.85162 -1.33037 2.94765 29 29 28
4.83058 -1.32978 2.94431 35 36 36
4.78986 -1.30783 2.8064 35 36 36
4.88999 -1.37399 2.90677 31 34 35
4.73061 -1.35006 2.74522 52 50 47
4.88416 -1.38107 2.88615 14 18 17
4.79546 -1.27852 2.85599 6 7 9
4.71084 -1.39002 2.76563 25 22 19
4.73192 -1.34825 2.70563 42 40 38
4.80922 -1.31075 2.80582 30 31 32
4.78993 -1.35212 2.84485 18 20 21
4.81158 -1.3691 2.82656 30 31 32
4.71003 -1.39054 2.72538 32 29 27
4.83065 -1.31154 2.92577 25 28 30
4.79134 -1.31132 2.86483 28 29 31
4.86942 -1.35081 2.94491 40 42 43
4.85086 -1.35223 2.86471 32 33 34
4.69148 -1.39234 2.7259 33 30 28
4.71384 -1.33987 2.73149 40 40 36
4.7691 -1.32987 2.82632 29 30 31
4.77085 -1.31217 2.78509 40 40 39
4.71019 -1.36824 2.72576 31 29 27
4.80867 -1.38952 2.88582 35 37 37
4.76337 -1.40198 2.89708 54 47 41
4.77078 -1.39043 2.88424 56 56 52
4.74999 -1.40305 2.88442 53 46 40
4.77169 -1.38892 2.86458 27 26 25
4.74822 -1.40402 2.8674 27 22 18
4.76486 -1.40307 2.86534 68 65 59
4.78773 -1.40197 2.84363 35 30 30
4.81054 -1.35531 2.88669 34 36 38
4.77983 -1.33858 2.96024 31 29 30
4.89297 -1.32849 2.92543 38 40 40
4.87425 -1.32961 2.92409 44 46 47
4.81142 -1.32986 2.92587 33 34 36
4.86902 -1.32616 2.90637 32 35 35
4.8301 -1.32563 2.90358 46 47 49
4.78872 -1.34814 2.92575 30 31 33
4.77145 -1.35018 2.92426 36 36 37
4.86897 -1.3274 2.88622 23 24 24
4.78892 -1.34634 2.90765 31 32 35
4.77056 -1.34954 2.90487 34 34 36
4.81026 -1.3303 2.88572 44 45 47
4.75189 -1.35516 2.90544 42 42 40
4.75052 -1.37123 2.90498 57 56 53
4.84726 -1.32466 2.86676 9 10 11
4.79042 -1.34769 2.88404 33 33 35
4.82991 -1.32683 2.86709 28 29 30
4.80883 -1.33042 2.86564 26 26 28
4.79141 -1.34739 2.86604 28 29 30
4.75196 -1.35422 2.88511 36 36 36
4.73103 -1.37161 2.88567 46 45 41
4.76957 -1.34835 2.86558 23 23 25
4.75082 -1.37134 2.86599 29 29 27
4.73047 -1.37196 2.86576 37 36 34
4.80811 -1.3288 2.84617 17 18 20
4.76873 -1.34989 2.8463 23 23 24
4.71202 -1.37432 2.86448 30 29 26
4.75095 -1.37055 2.84555 26 26 25
4.80838 -1.30888 2.82495 32 33 34
4.79171 -1.31058 2.82694 32 33 34
4.77164 -1.31297 2.82549 36 37 38
4.77173 -1.35197 2.82561 25 25 26
4.74911 -1.34993 2.82748 18 18 20
4.71287 -1.35609 2.80691 26 25 24
4.71149 -1.37196 2.80627 25 23 22
4.7304 -1.39295 2.80468 20 17 16
4.83261 -1.35377 2.94624 33 34 36
4.83129 -1.38889 2.92553 48 50 50
4.87136 -1.34977 2.92621 33 34 36
4.83074 -1.36986 2.94591 35 36 37
4.81097 -1.37138 2.94595 45 46 46
4.85139 -1.35347 2.9263 34 36 37
4.82945 -1.36991 2.92621 35 36 37
4.89145 -1.35305 2.90583 37 39 41
4.81153 -1.37102 2.92474 45 46 47
4.79118 -1.37168 2.92569 46 46 46
4.77143 -1.38892 2.92687 42 42 39
4.87165 -1.35086 2.88554 37 39 40
4.85 -1.36917 2.88518 47 49 50
4.79185 -1.37102 2.90553 55 56 56
4.76977 -1.37063 2.90484 53 53 51
4.76989 -1.38949 2.90548 54 54 51
4.74975 -1.39172 2.90791 52 50 47
4.88987 -1.35301 2.86558 16 17 19
4.87025 -1.35366 2.86537 27 29 30
4.81054 -1.37041 2.8844 34 35 36
4.79069 -1.36972 2.8865 31 31 32
4.74983 -1.38819 2.88574 49 47 44
4.73212 -1.39031 2.88618 47 46 42
4.791 -1.37059 2.86458 29 30 31
4.77265 -1.37068 2.86626 31 32 31
4.83485 -1.35424 2.84682 26 27 29
4.82945 -1.36838 2.84516 31 33 34
4.79217 -1.37211 2.84534 23 24 25
4.72989 -1.38861 2.86543 29 28 26
4.76914 -1.38878 2.84467 25 24 23
4.74941 -1.38982 2.84523 33 32 30
4.77138 -1.38899 2.82645 20 19 20
4.75173 -1.33279 2.8245 29 29 29
4.74536 -1.40445 2.82566 23 20 17
4.75082 -1.38777 2.82621 20 19 19
4.71095 -1.37316 2.82487 22 21 20
4.88573 -1.31495 2.90347 33 33 34
4.87012 -1.31712 2.86569 12 13 14
4.84974 -1.31236 2.84814 16 17 18
4.79384 -1.27977 2.84783 24 24 26
4.79157 -1.29288 2.82675 35 34 36
4.81067 -1.35337 2.96576 35 35 36
4.84899 -1.36965 2.94438 35 36 38
4.86962 -1.37045 2.8866 47 49 50
4.86995 -1.37017 2.86577 48 49 50
4.75068 -1.36973 2.88476 40 40 38
4.87177 -1.37099 2.84643 29 31 32
4.84891 -1.37301 2.82457 22 24 25
4.77127 -1.37075 2.84453 27 28 28
4.81013 -1.36857 2.80515 28 29 30
4.78989 -1.37122 2.80587 25 25 26
4.76973 -1.37134 2.80388 21 21 22
4.75087 -1.36956 2.80648 26 25 25
4.77185 -1.37023 2.78618 31 31 30
4.72988 -1.36924 2.78571 31 30 28
4.73267 -1.33238 2.78603 38 36 35
4.73219 -1.35063 2.78533 34 33 32
4.7108 -1.37042 2.78678 24 23 21
4.71189 -1.35393 2.78622 33 31 30
4.83387 -1.35747 2.92545 33 34 36
4.83179 -1.35274 2.80604 40 41 42
4.7301 -1.38888 2.78536 22 20 19
4.75039 -1.37307 2.76583 31 30 28
4.7302 -1.3879 2.76491 25 22 20
4.77037 -1.35048 2.74553 57 55 52
4.7535 -1.38677 2.7454 32 30 28
4.72989 -1.37112 2.76539 37 35 33
4.73193 -1.38825 2.74638 27 24 22
4.70907 -1.37115 2.74567 39 36 34
4.89051 -1.37124 2.92544 34 36 38
4.79069 -1.38966 2.94611 39 41 41
4.89017 -1.33547 2.88518 24 26 27
4.7917 -1.3885 2.90523 50 51 50
4.87001 -1.31688 2.85125 18 19 21
4.72954 -1.38932 2.84512 26 25 22
4.7893 -1.36725 2.76434 39 38 37
4.77128 -1.37208 2.72623 49 46 44
4.77072 -1.36958 2.70438 45 43 40
4.7677 -1.38417 2.708 38 35 33
4.74952 -1.38705 2.7059 25 23 20
4.76991 -1.37162 2.68556 44 42 40
4.73189 -1.39108 2.70769 31 28 26
4.71115 -1.3897 2.70643 33 30 27
4.70814 -1.33443 2.70229 43 42 39
4.6892 -1.36908 2.68496 55 53 49
4.83063 -1.30862 2.90629 28 30 33
4.84463 -1.29663 2.88645 27 29 32
4.83348 -1.29996 2.90813 28 29 31
4.81671 -1.3143 2.90368 34 35 37
4.83297 -1.29622 2.86522 24 25 27
4.8187 -1.29862 2.88055 2 3 5
4.79107 -1.33297 2.88557 39 40 42
4.81367 -1.29781 2.8663 1 2 4
4.81068 -1.29548 2.80571 48 48 48
4.78667 -1.35073 2.82637 29 31 32
4.79274 -1.33308 2.80544 38 38 38
4.75081 -1.37091 2.72502 41 39 36
4.76918 -1.35139 2.68693 32 31 29
4.75109 -1.36822 2.68573 40 38 35
4.7495 -1.38602 2.68638 34 32 31
4.75002 -1.34958 2.66653 30 29 29
4.70924 -1.38815 2.68745 44 41 37
4.712 -1.37076 2.66656 57 54 49
4.73124 -1.35489 2.90635 49 48 46
4.74703 -1.33077 2.88794 35 34 36
4.72996 -1.35662 2.88675 42 40 39
4.72913 -1.35818 2.86692 32 31 30
4.77307 -1.31202 2.84564 36 37 39
4.73475 -1.35567 2.84484 24 24 24
4.79187 -1.29611 2.80294 40 40 41
4.73149 -1.35208 2.82506 22 23 23
4.73503 -1.33342 2.80616 39 38 38
4.75401 -1.31715 2.78752 49 49 47
4.73019 -1.3302 2.76651 47 45 42
4.71012 -1.35182 2.76803 42 39 38
4.71142 -1.3699 2.76681 28 26 24
4.71215 -1.35125 2.74674 31 29 27
4.75472 -1.31689 2.72007 33 33 33
4.75226 -1.33067 2.72568 31 31 30
4.71168 -1.35244 2.7058 44 42 40
4.69069 -1.37138 2.72475 33 30 28
4.69196 -1.35339 2.70395 49 46 43
4.7528 -1.33263 2.66527 25 25 25
4.73033 -1.34749 2.68543 43 42 40
4.71332 -1.35087 2.66509 52 50 47
4.89189 -1.31945 2.93074 42 44 44
4.84453 -1.29523 2.90221 19 21 22
4.82832 -1.30632 2.88463 21 22 26
4.84396 -1.29464 2.82637 41 42 44
4.81187 -1.31003 2.84565 24 26 29
4.82775 -1.30801 2.8258 31 32 34
4.80868 -1.3297 2.80141 30 31 31
4.84404 -1.29956 2.93591 22 24 24
4.79144 -1.29437 2.84674 37 38 40
4.77135 -1.33232 2.84551 27 28 30
4.77159 -1.31303 2.80406 35 36 36
4.78863 -1.30806 2.78402 47 47 46
4.7722 -1.31242 2.76522 42 42 41
4.75396 -1.31755 2.76459 31 29 29
4.75178 -1.33173 2.76731 52 50 48
4.73042 -1.35011 2.7665 39 37 35
4.74874 -1.3497 2.72446 47 45 41
4.86987 -1.33143 2.94584 41 43 44
4.81131 -1.35097 2.80352 37 38 40
4.76601 -1.38211 2.77265 27 25 26
4.73098 -1.37186 2.72591 36 34 31
4.73172 -1.37304 2.7051 34 32 30
4.71192 -1.37312 2.68626 47 44 41
4.83013 -1.38656 2.88634 32 34 37
4.85178 -1.31625 2.8641 6 6 8
4.83226 -1.31014 2.84382 15 17 19
4.77123 -1.33158 2.74568 46 46 44
4.75167 -1.35178 2.74604 56 54 51
4.75103 -1.35092 2.68459 37 36 35
4.70703 -1.30898 2.72696 44 43 42
4.69299 -1.33278 2.68543 58 57 54
4.71069 -1.37162 2.70581 46 44 41
4.85767 -1.3343 2.92973 12 15 16
4.70998 -1.35962 2.83824 16 16 16
4.86734 -1.38334 2.88375 34 38 39
4.84821 -1.3824 2.84986 20 22 23
4.8103 -1.38888 2.84776 19 21 22
4.80987 -1.38583 2.82636 10 13 14
4.81164 -1.35572 2.86681 35 38 39
4.83943 -1.33195 2.81598 49 52 53
4.7671 -1.32991 2.78578 49 49 48
4.68986 -1.32593 2.74638 37 35 33
4.67639 -1.33627 2.75618 42 40 38
4.7658 -1.38301 2.74616 42 41 38
4.72673 -1.40091 2.7015 60 58 55
4.85462 -1.33014 2.84534 16 18 20
4.68887 -1.35586 2.74266 45 44 42
4.69189 -1.35267 2.72402 46 44 42
4.7973 -1.316 2.94599 39 40 42
4.79245 -1.28915 2.86356 45 46 48
4.69507 -1.33012 2.72632 77 74 72
4.7724 -1.29842 2.75329 41 43 43
4.75683 -1.31854 2.84517 47 48 50
4.71621 -1.3393 2.82312 41 40 40
4.73533 -1.29752 2.73709 12 13 14
4.74202 -1.2957 2.729 11 13 13
4.69273 -1.32065 2.67746 12 11 13
