ply
format ascii 1.0
comment Created by Open3D
element vertex 1284
property double x
property double y
property double z
property uchar red
property uchar green
property uchar blue
end_header
0.751014 -1.20976 0.325031 37 30 25
0.730506 -1.21087 0.319843 37 30 24
0.730873 -1.17238 0.309715 39 32 26
0.731399 -1.15187 0.302981 40 33 27
0.710582 -1.15129 0.300348 42 35 29
0.69098 -1.16984 0.309287 44 38 31
0.672491 -1.16991 0.308133 48 41 34
0.609533 -1.15128 0.287195 62 56 50
0.618079 -1.11672 0.251187 36 31 26
0.586638 -1.18766 0.186546 33 31 30
0.588605 -1.19846 0.168545 31 29 28
0.569677 -1.21066 0.165574 49 46 44
0.512641 -1.20572 0.147808 47 44 43
0.469436 -0.960513 0.255278 68 65 59
0.439113 -1.04315 0.108879 72 72 67
0.390341 -1.14899 0.0051723 83 82 84
0.388166 -1.13664 -0.012966 89 88 86
0.353787 -1.14184 0.0101412 86 87 85
0.328742 -1.13828 0.021144 88 88 86
0.312902 -1.14516 0.0520945 100 100 99
0.335754 -1.12234 -0.0286956 87 87 85
0.309027 -1.13898 0.0418765 90 90 88
0.368026 -1.06457 -0.0730582 98 95 91
0.31233 -1.12976 0.00468644 82 81 80
0.343788 -1.10339 -0.0951357 85 81 79
0.337895 -1.10143 -0.0977595 98 94 90
0.322256 -1.11213 -0.045099 87 87 85
0.308508 -1.11613 -0.0186205 77 77 76
0.344457 -1.08381 -0.199265 81 77 71
0.303998 -1.09701 -0.0716756 89 87 85
0.290287 -1.10888 -0.0325542 75 75 74
0.273588 -1.12613 0.0266986 82 81 79
0.289997 -1.0917 -0.0545467 71 71 68
0.271821 -1.11118 -0.0118667 90 89 86
0.269759 -1.09265 -0.0388331 69 68 66
0.248975 -1.11033 0.00563221 86 84 83
0.27158 -1.073 -0.0756569 89 85 77
0.296617 -1.03385 -0.11292 87 82 72
0.278517 -1.05214 -0.106229 139 129 113
0.251148 -1.08786 -0.0535074 70 68 64
0.327466 -0.931231 -0.136193 64 59 54
0.230581 -1.09564 -0.0147562 90 86 80
0.238023 -1.10434 -0.0114939 105 103 97
0.230012 -1.11154 0.0448608 85 84 83
0.230977 -1.0916 -0.0341722 85 82 78
0.256525 -1.033 -0.0555103 140 130 116
0.231707 -1.08578 -0.0521581 111 105 97
0.328236 -0.870709 -0.174168 65 62 57
0.256382 -0.990772 -0.0475954 114 107 97
0.254995 -0.931726 0.0269138 55 54 52
0.238338 -0.929175 0.0691845 65 64 61
0.21205 -0.93104 0.105659 72 72 71
0.212088 -0.971021 0.125121 100 96 90
0.257879 -0.768084 -0.196114 122 123 121
0.229628 -0.792028 0.0443637 71 70 67
0.172306 -0.890182 0.167435 90 86 82
0.172514 -0.870032 0.167659 84 82 78
0.159316 -0.905687 0.201849 161 150 136
0.172097 -0.829553 0.148861 79 78 76
0.152851 -0.850611 0.168221 104 98 92
0.131724 -0.749984 0.12611 112 109 107
0.135829 -0.75025 0.0128775 130 126 117
0.12948 -0.747864 0.106253 133 130 126
0.116395 -0.790771 0.146343 120 113 106
0.130563 -0.767408 0.124895 129 123 117
0.116469 -0.770992 0.14505 104 98 91
0.132177 -0.750167 0.0663313 127 121 116
0.131923 -0.751135 0.0859142 140 136 129
0.114039 -0.769872 0.125223 120 115 110
0.117916 -0.752143 0.0652101 146 139 128
0.115077 -0.754874 0.0843056 154 151 148
0.115035 -0.752662 0.1038 118 116 110
0.112459 -0.771312 0.0861159 143 140 136
0.609667 -1.18993 0.287762 75 69 64
0.634858 -1.09283 0.264954 16 13 11
0.631074 -1.13502 0.244941 38 33 28
0.59285 -1.1906 0.283292 52 47 42
0.581711 -1.1754 0.174016 28 28 26
0.574287 -1.17696 0.179054 22 18 19
0.551373 -1.18654 0.187063 61 58 55
0.513546 -1.2037 0.229026 51 45 40
0.512708 -1.19214 0.224753 78 71 65
0.547966 -1.18209 0.15069 35 31 31
0.532471 -1.18842 0.162659 44 40 40
0.511133 -1.1749 0.207386 80 74 69
0.530258 -1.17111 0.145512 30 28 29
0.493121 -1.18996 0.217579 95 88 81
0.495176 -1.17656 0.201329 87 83 79
0.507663 -1.18365 0.131241 48 46 45
0.522553 -1.13899 0.123626 45 42 37
0.48673 -1.17932 0.156631 73 71 70
0.452018 -1.16787 0.184588 98 94 88
0.452321 -1.16957 0.145264 98 98 97
0.486479 -1.13463 0.0885761 63 61 58
0.449141 -1.17582 0.125019 81 81 81
0.467678 -1.14878 0.0890892 67 65 62
0.469386 -1.13023 0.0710346 70 68 65
0.409736 -1.16015 0.158724 80 79 77
0.444606 -1.10953 0.0528816 82 80 77
0.38982 -1.15381 0.106093 88 88 87
0.430075 -1.09219 0.0457868 89 87 85
0.391363 -1.13052 0.0657209 87 87 85
0.410229 -1.09964 0.0261504 91 89 88
0.401514 -1.12067 0.057471 86 86 84
0.35088 -1.15383 0.14266 113 115 118
0.390932 -1.11322 0.0461494 87 87 85
0.38982 -1.09923 0.0195647 89 89 87
0.349235 -1.12863 0.107241 71 71 71
0.351578 -1.12607 0.0666473 87 88 87
0.391605 -1.06944 -0.0198529 89 88 89
0.330499 -1.13179 0.0855862 85 86 90
0.350503 -1.09674 0.0247362 84 85 85
0.33137 -1.1117 0.0468641 76 77 78
0.371591 -1.05069 -0.0752197 73 72 69
0.333348 -1.09638 0.0233665 83 84 83
0.371004 -1.01335 -0.0345992 78 80 82
0.370095 -1.0498 -0.0945647 73 72 68
0.329451 -1.0812 -0.0072225 87 88 86
0.311084 -1.09683 0.0220034 86 86 85
0.370086 -1.04628 -0.134101 77 75 71
0.37031 -1.04802 -0.11421 73 73 69
0.310699 -1.08754 0.00625817 86 86 86
0.352865 -1.08396 -0.216952 64 61 55
0.351 -1.06817 -0.175238 72 69 63
0.287998 -1.10999 0.0293537 75 75 75
0.29246 -1.08564 0.00529137 82 81 80
0.333081 -1.06857 -0.193468 59 56 49
0.33153 -1.05004 -0.11377 64 63 59
0.27073 -1.09444 0.0251048 72 72 71
0.332267 -1.05102 -0.15462 63 60 55
0.270027 -1.07271 -0.0140211 67 67 65
0.328122 -0.991093 -0.113252 89 84 77
0.310975 -1.03384 -0.0946079 65 63 57
0.329478 -0.969634 -0.0933845 96 90 82
0.290428 -1.03215 -0.0738866 65 63 57
0.33033 -0.910171 -0.113859 67 62 57
0.250558 -1.06904 -0.0145247 73 72 67
0.228475 -1.09383 0.0234974 69 67 65
0.218938 -1.12687 0.0807184 115 113 110
0.255985 -1.07249 -0.0324779 89 86 80
0.212893 -1.11664 0.061278 95 92 87
0.310342 -0.830602 -0.0739634 70 67 63
0.200216 -1.09438 -0.00994962 171 156 134
0.197385 -1.09809 -0.000528635 157 139 118
0.309493 -0.810571 -0.0955038 72 68 65
0.28968 -0.83206 -0.0353166 72 69 65
0.290056 -0.809964 -0.0552629 71 68 64
0.246061 -0.832445 0.0644632 63 61 59
0.20183 -0.90476 0.199783 56 55 55
0.226779 -0.811939 0.0849826 64 63 62
0.229834 -0.81138 0.104833 59 57 56
0.228409 -0.79193 0.0651836 67 66 64
0.192668 -0.870757 0.106138 84 82 80
0.715698 -1.03908 0.413179 22 15 11
0.276739 -0.931475 -0.0321606 54 52 48
0.330665 -0.869839 -0.213197 67 65 58
0.255717 -0.910126 0.00613473 58 57 54
0.210956 -0.712376 -0.0146744 94 95 94
0.188474 -0.712856 0.064345 90 89 88
0.163807 -0.752756 0.219881 60 60 58
0.715922 -1.18951 0.253892 42 37 30
0.689466 -1.1705 0.253846 40 34 29
0.688321 -1.1529 0.253495 27 22 18
0.648042 -1.17106 0.22826 35 30 25
0.603737 -1.13458 0.213779 37 30 26
0.570701 -1.15143 0.204265 30 26 26
0.51042 -1.14955 0.142254 40 37 37
0.47081 -1.13114 0.108183 59 57 55
0.452223 -1.15062 0.142551 60 59 59
0.464108 -1.11288 0.0687573 75 72 69
0.412938 -1.1237 0.140854 82 82 81
0.450897 -1.01288 0.126758 52 54 56
0.410625 -1.03169 0.025527 70 70 69
0.391072 -1.04948 -0.0146108 78 76 74
0.391582 -1.05012 -0.054289 75 74 71
0.391155 -1.051 -0.0750302 76 75 72
0.370426 -1.03306 -0.0547683 74 75 74
0.370579 -1.03267 -0.0345208 74 75 73
0.350949 -1.0337 -0.0546769 73 74 72
0.351472 -1.03251 -0.114671 74 73 70
0.351207 -1.03262 -0.154121 69 67 62
0.331838 -1.01227 -0.112603 69 67 63
0.291718 -1.0116 0.0464262 67 70 71
0.291153 -1.01345 0.0859548 80 83 85
0.289214 -0.934545 0.0612919 86 83 81
0.306163 -0.771599 -0.117579 73 69 67
0.303862 -0.752753 -0.120856 77 73 71
0.289039 -0.732047 -0.115234 80 78 75
0.288424 -0.713618 -0.116231 87 85 82
0.268443 -0.751782 -0.075588 77 75 72
0.268833 -0.731758 -0.0948976 84 83 80
0.266101 -0.732566 -0.0761583 83 82 79
0.267789 -0.753389 -0.0552697 76 75 72
0.287049 -0.715263 -0.15781 81 79 77
0.248387 -0.751297 -0.0353108 76 75 72
0.267804 -0.695085 -0.133887 107 107 106
0.267142 -0.694191 -0.118152 104 106 104
0.24644 -0.753064 -0.0153748 75 74 71
0.248552 -0.713114 -0.0757251 92 93 92
0.266533 -0.696723 -0.173566 95 93 89
0.245972 -0.715386 -0.056849 91 92 90
0.251165 -0.692024 -0.154106 123 120 117
0.22948 -0.714262 -0.0348989 90 91 89
0.231378 -0.71102 -0.11437 113 114 113
0.229783 -0.694965 -0.0947921 120 116 115
0.231999 -0.692834 -0.0761744 110 111 110
0.230035 -0.711316 -0.0947008 103 104 103
0.227053 -0.694941 -0.0565794 110 112 111
0.208841 -0.71369 0.0248069 85 85 83
0.212695 -0.697512 -0.0702939 118 117 114
0.210168 -0.692327 -0.033426 108 109 108
0.192074 -0.691615 -0.0327385 112 112 111
0.180794 -0.740665 -0.127934 118 113 101
0.189341 -0.694866 0.0241078 98 98 96
0.172613 -0.696855 0.0258237 120 115 114
0.227327 -0.867559 -0.0603028 78 75 72
0.476716 -1.04336 0.170511 54 50 47
0.4525 -1.09012 0.0899306 61 59 56
0.429652 -1.12583 0.0485207 82 80 77
0.408105 -1.14248 0.0462589 83 81 80
0.410386 -1.02853 0.0661845 67 68 68
0.370409 -1.11339 0.00727101 83 83 82
0.35318 -1.11651 0.00424252 83 83 81
0.39012 -1.06222 -0.0722713 90 90 91
0.39079 -1.01437 -0.0541457 78 80 82
0.331182 -1.11464 -0.0156183 82 82 80
0.391012 -1.04957 -0.114193 74 73 69
0.371571 -1.06635 -0.116762 85 83 77
0.371288 -1.0667 -0.154601 75 73 68
0.339961 -1.08425 -0.0661862 91 88 83
0.329278 -1.08951 -0.0553817 86 84 81
0.366589 -1.05276 -0.232396 97 89 79
0.331623 -1.03462 -0.0953276 68 67 63
0.290284 -1.09111 -0.0354289 64 64 64
0.279681 -1.12451 -0.0239749 80 78 77
0.35203 -1.07331 -0.234397 74 69 61
0.351995 -0.992577 -0.114071 63 64 63
0.311815 -1.03308 -0.0741084 59 57 53
0.272815 -1.12123 -0.0255974 77 75 74
0.329524 -0.871512 -0.0745741 78 74 68
0.327583 -0.850136 -0.0744762 68 65 59
0.326529 -0.851669 -0.0953801 68 65 61
0.307177 -0.851713 -0.0354947 73 68 64
0.211821 -0.99087 0.0892566 101 95 88
0.286657 -0.811832 -0.0355829 70 68 64
0.211112 -0.909756 0.0902609 77 76 74
0.215085 -0.867277 0.0713234 73 73 71
0.215173 -0.849084 0.0673481 79 79 76
0.178327 -0.922963 0.122123 99 96 92
0.212464 -0.830478 0.027401 80 79 74
0.175629 -0.910826 0.114391 128 122 112
0.270215 -0.71204 -0.1532 97 97 96
0.188221 -0.83068 0.0646933 84 82 80
0.171416 -0.870867 0.107892 96 92 88
0.192034 -0.809826 0.0468807 107 107 104
0.170233 -0.850767 0.104533 82 80 77
0.15243 -0.850718 0.104833 97 94 91
0.14887 -0.878432 0.116574 83 81 80
0.171535 -0.790405 0.0460721 108 106 103
0.169894 -0.771096 0.0251993 120 120 116
0.170672 -0.791032 0.064698 113 112 109
0.151026 -0.810262 0.0845524 109 105 99
0.172425 -0.768657 0.00669061 116 115 112
0.151336 -0.790858 0.0463341 128 125 118
0.151746 -0.790189 0.0654124 117 115 111
0.152712 -0.770636 0.0253809 117 117 112
0.13164 -0.812851 0.0827145 91 90 88
0.132229 -0.804618 0.0692108 104 104 102
0.129858 -0.78995 0.0472298 115 115 112
0.1329 -0.770472 0.0269498 133 130 125
0.133671 -0.769769 -0.0106052 131 126 119
0.132272 -0.769573 0.00627973 136 133 126
0.130647 -0.784704 0.0339981 130 124 114
0.112352 -0.810332 0.065711 116 115 113
0.112749 -0.793863 0.0284608 137 133 125
0.106674 -0.80805 0.0474104 113 113 110
0.0997018 -0.814006 0.0518853 120 116 112
0.369898 -0.928885 0.165269 76 72 70
0.366029 -0.928154 0.146834 79 77 74
0.364106 -0.945393 0.150196 85 83 80
0.348749 -0.948126 0.148231 74 72 70
0.332163 -0.950694 0.103216 76 75 77
0.330578 -0.971714 0.101974 80 81 85
0.330351 -0.949921 0.0871196 81 82 87
0.342047 -0.930479 0.0443255 77 73 68
0.342239 -0.927111 0.0114859 88 84 77
0.33112 -0.935734 0.0232389 74 69 63
0.345628 -0.976334 -0.11005 90 89 83
0.349855 -0.992947 -0.195346 94 89 81
0.330126 -0.989534 -0.133619 80 75 68
0.333115 -0.989383 -0.172932 67 63 55
0.328402 -0.969436 -0.136403 95 88 79
0.329 -0.970615 -0.152628 75 70 62
0.295907 -0.991631 -0.112843 97 89 80
0.255157 -1.01058 -0.0121484 95 89 82
0.288459 -0.833108 -0.0158745 66 63 59
0.267359 -0.812888 0.00299012 70 67 64
0.266604 -0.7912 -0.0158285 71 70 67
0.24665 -0.79218 0.023227 68 66 63
0.189835 -0.889906 0.124044 78 77 75
0.246771 -0.771323 0.00404284 72 70 67
0.191214 -0.828462 0.107548 73 73 72
0.228704 -0.7705 0.0444541 71 69 67
0.151953 -0.850232 0.143742 86 83 81
0.154251 -0.808783 0.126021 96 93 89
0.15332 -0.77177 0.106287 107 108 105
0.132814 -0.790671 0.123148 96 94 91
0.132397 -0.771296 0.105225 119 116 110
0.116268 -0.81058 0.126153 84 82 78
0.130467 -0.76893 0.0865928 137 131 122
0.111365 -0.790542 0.103876 132 130 125
0.10023 -0.785576 0.0822622 157 151 139
0.410009 -1.01311 0.0851457 73 76 79
0.389614 -0.996621 0.0633 82 78 73
0.391022 -1.0145 0.0462202 79 81 84
0.390516 -1.03141 0.00558908 70 71 71
0.37898 -0.998594 -0.0047776 93 90 83
0.370352 -1.01341 -0.0142347 79 81 83
0.34947 -1.04768 -0.0144591 74 74 73
0.350041 -1.04751 -0.033097 75 74 72
0.370858 -1.01316 -0.0740946 78 80 82
0.330642 -1.04838 -0.0543156 71 69 67
0.342056 -0.934821 -0.158262 62 58 50
0.252763 -1.01226 -0.0385835 73 67 62
0.272919 -0.930089 -0.0691465 74 71 66
0.249936 -0.951713 -0.0532402 73 71 66
0.260465 -0.927722 -0.0650573 76 73 68
0.250233 -0.891543 -0.0720923 78 75 71
0.251675 -0.849477 -0.0929954 76 74 70
0.249395 -0.850662 -0.0775984 79 76 73
0.229451 -0.85065 -0.076909 85 83 80
0.228605 -0.829597 -0.0768005 87 85 82
0.211813 -0.869425 -0.0710448 79 75 73
0.231361 -0.789822 -0.09474 93 93 91
0.230295 -0.808598 -0.0896457 83 82 79
0.189025 -0.870852 -0.0611159 82 79 76
0.170446 -0.869461 -0.0574153 85 82 79
0.190933 -0.791477 -0.0906769 111 111 109
0.191766 -0.772997 -0.0972926 103 101 99
0.190456 -0.768089 -0.114705 116 113 108
0.172081 -0.811229 -0.0748549 102 101 100
0.151953 -0.851481 -0.0571627 93 91 89
0.15138 -0.831097 -0.0742684 112 112 110
0.147791 -0.845411 -0.0659739 105 105 103
0.146924 -0.814708 -0.0899552 87 87 85
0.133577 -0.836059 -0.0760351 110 110 108
0.129333 -0.849268 -0.0700929 111 111 109
0.138817 -0.824233 -0.0849021 90 90 88
0.337544 -1.06814 -0.21516 74 70 63
0.33513 -1.04988 -0.211194 59 55 49
0.311873 -1.03131 -0.134247 76 72 65
0.347826 -0.932278 -0.174393 93 92 91
0.232337 -0.870429 0.0249531 73 70 67
0.235729 -0.847459 0.00755692 73 71 66
0.207749 -0.810398 -0.0171335 90 90 88
0.193532 -0.809968 0.0054108 92 93 88
0.192106 -0.791181 0.00437352 95 95 92
0.252518 -0.889804 -0.0342809 68 65 60
0.351082 -1.086 0.222946 82 76 70
0.38985 -1.03285 -0.154746 75 75 73
0.27276 -0.909554 -0.0545638 64 62 57
0.251461 -0.868473 -0.0369061 69 68 63
0.231993 -0.870102 -0.034174 75 71 68
0.232536 -0.887266 -0.033042 81 78 74
0.231519 -0.850974 -0.0339526 76 72 70
0.231176 -0.832241 -0.0347216 76 73 70
0.213971 -0.831231 -0.0328854 96 96 94
0.191919 -0.811227 -0.0127541 86 84 82
0.192192 -0.790172 -0.0141859 91 91 88
0.170318 -0.792305 0.00259756 111 111 107
0.170228 -0.7696 -0.013677 114 111 108
0.63978 -1.10758 0.375781 23 16 15
0.190057 -0.691711 0.065709 90 90 88
0.231311 -0.903736 -0.0779955 74 70 68
0.207384 -0.791416 -0.0561167 89 89 85
0.181234 -0.844016 -0.043587 82 78 78
0.193163 -0.771047 -0.0528142 99 99 95
0.172032 -0.810169 -0.0551733 93 91 88
0.168908 -0.814681 -0.0431877 94 92 89
0.172039 -0.76895 -0.054015 109 104 101
0.153506 -0.79106 -0.0725137 93 93 90
0.346333 -0.908966 -0.19327 87 81 78
0.293673 -0.930358 -0.110728 69 64 60
0.326412 -0.832199 -0.173453 69 66 61
0.307305 -0.790756 -0.21364 77 73 67
0.304861 -0.772257 -0.215307 80 79 73
0.248232 -0.866799 -0.0914246 74 70 67
0.197362 -0.871437 -0.066431 77 74 72
0.192413 -0.788535 -0.0771706 105 103 101
0.131616 -0.832184 -0.0588844 104 102 99
0.314881 -1.17177 0.138778 91 93 97
0.302443 -0.736745 -0.157436 76 73 71
0.301978 -0.732351 -0.133264 77 74 71
0.22318 -0.871187 -0.0204693 74 71 69
0.188008 -0.850948 0.0020456 102 99 97
0.172496 -0.805325 -0.00738269 83 81 80
0.171332 -0.789831 -0.0154467 106 106 103
0.152203 -0.831821 0.00853708 110 107 101
0.151124 -0.804641 -0.00755993 146 136 125
0.148524 -0.782571 -0.0279499 107 107 105
0.609324 -1.12974 0.348342 22 15 12
0.347295 -0.896409 -0.194749 91 91 90
0.304531 -0.769466 -0.192878 76 73 69
0.305899 -0.751644 -0.154763 73 67 65
0.155219 -0.771 0.0860688 131 130 128
0.131569 -0.770643 0.0644039 117 113 108
0.39078 -1.01482 0.00531994 78 81 83
0.390396 -1.03215 -0.0142944 72 73 73
0.390435 -1.01394 -0.0341184 79 80 83
0.390747 -1.03205 -0.0543773 73 74 73
0.390657 -1.01229 -0.0944067 77 80 82
0.391004 -1.01401 -0.0748303 78 80 82
0.389872 -1.04632 -0.153254 74 73 69
0.332815 -1.03277 -0.134153 55 53 49
0.331974 -1.02919 -0.151742 64 59 54
0.311244 -1.03256 -0.0540641 54 54 52
0.342289 -0.868579 -0.132691 61 57 52
0.325835 -0.81359 -0.116248 66 61 58
0.322747 -0.798502 -0.113204 70 66 62
0.30313 -0.795596 -0.0792338 67 63 62
0.233824 -0.930891 0.0260168 69 67 65
0.232277 -0.907608 0.0258114 71 69 67
0.234053 -0.930045 0.0443942 83 82 80
0.282553 -0.754088 -0.0746457 75 73 70
0.212661 -0.929827 0.0461616 69 68 67
0.205357 -0.909881 0.0623397 87 83 79
0.20681 -0.889686 0.0622262 91 89 86
0.194118 -0.908746 0.0675542 63 62 61
0.191063 -0.871048 0.0673539 75 72 70
0.179971 -0.862778 0.0745517 71 67 67
0.1721 -0.869294 0.0851669 88 84 81
0.17814 -0.84855 0.068 84 82 80
0.152185 -0.849182 0.0891539 87 84 81
0.157136 -0.86713 0.0893106 71 69 68
0.171102 -0.811217 0.086871 86 87 86
0.154391 -0.770913 0.0652641 148 146 143
0.11723 -0.838878 0.0976233 65 63 62
0.378425 -0.998619 0.033605 80 77 72
0.375501 -0.999824 0.0450297 79 76 71
0.370746 -1.01334 -0.0542692 77 80 82
0.390483 -1.07081 -0.195979 76 73 67
0.391335 -1.03263 -0.13426 75 76 75
0.371241 -1.01182 -0.0943086 77 80 81
0.346509 -0.995726 -0.0550348 80 79 78
0.348499 -0.994907 -0.0764377 72 72 72
0.32502 -0.85439 -0.0565962 64 59 55
0.321165 -0.880959 -0.0368552 139 133 126
0.325201 -0.833352 -0.0754689 65 61 59
0.290467 -0.913083 0.0414337 98 95 92
0.286125 -0.891975 0.0429168 118 105 94
0.281905 -0.915714 0.0684424 130 116 101
0.322466 -0.816692 -0.0973331 66 65 59
0.290051 -0.871967 0.0245709 67 65 66
0.281035 -0.896847 0.0576071 126 113 98
0.323275 -0.798726 -0.130273 70 57 53
0.263575 -0.915493 0.100053 123 110 97
0.287341 -0.854253 0.0244635 64 64 64
0.285227 -0.831694 0.00264007 87 81 75
0.271779 -0.851809 0.046071 56 53 50
0.264332 -0.871174 0.0828997 46 43 42
0.266334 -0.851592 0.0658039 52 50 48
0.28299 -0.795035 -0.0383887 71 70 66
0.266696 -0.812773 0.0240523 90 84 80
0.264908 -0.792725 0.00261301 70 68 65
0.266618 -0.770178 -0.0178497 75 75 71
0.248459 -0.812513 0.0642747 60 59 57
0.284821 -0.715933 -0.190247 96 94 93
0.247989 -0.771678 0.023742 72 72 69
0.352545 -0.934857 0.145788 72 69 67
0.331465 -0.951641 0.142749 69 66 65
0.336703 -0.939937 0.148494 72 68 66
0.369136 -0.996449 -0.114818 73 75 76
0.334571 -0.935493 0.105861 72 69 66
0.329339 -0.947622 0.126599 69 67 65
0.33361 -0.934473 0.0836347 76 75 77
0.311802 -0.953149 0.106505 69 65 64
0.311963 -0.953195 0.0839857 74 73 75
0.341149 -0.909069 -0.101454 120 106 99
0.293482 -0.956272 0.089426 69 69 73
0.291464 -0.969574 0.103818 63 60 59
0.297909 -0.959724 0.109394 69 65 63
0.34273 -0.879219 -0.121265 54 45 36
0.323345 -0.81258 -0.175253 80 78 72
0.285917 -0.713822 -0.172556 82 82 79
0.117966 -0.826138 0.132255 141 135 125
0.358435 -0.955348 0.204682 67 65 64
0.349159 -0.964719 0.201017 66 65 66
0.325916 -0.983406 0.182416 67 65 66
0.315578 -0.975956 0.162111 67 65 65
0.344763 -0.9384 0.0223206 72 68 66
0.341619 -0.945184 -0.013713 65 59 55
0.307257 -0.964424 0.128245 67 65 64
0.313949 -0.974128 0.101132 78 78 83
0.292583 -0.975525 0.127137 66 64 63
0.232503 -1.01209 0.126259 68 69 68
0.230702 -0.97032 0.106377 83 81 78
0.233751 -0.991416 0.10743 76 77 75
0.21293 -1.01145 0.127732 102 99 94
0.267731 -0.755296 -0.0358776 78 78 74
0.27048 -0.713253 -0.194591 105 104 99
0.246287 -0.79103 0.0468873 67 65 64
0.225888 -0.75313 0.0445667 70 68 66
0.225293 -0.737578 0.0428548 74 74 72
0.20961 -0.771516 0.104391 70 69 68
0.208959 -0.752004 0.08439 71 71 69
0.206182 -0.712381 0.063433 72 72 69
0.205602 -0.734092 0.0837047 70 69 67
0.156163 -0.908656 0.16546 116 103 93
0.44764 -1.07424 0.0858238 64 61 56
0.34185 -0.858411 -0.110529 59 56 51
0.300681 -1.03388 -0.135841 125 115 101
0.284841 -0.872375 0.0435878 70 63 58
0.284532 -0.860136 0.0377567 47 43 41
0.260997 -0.873099 0.100749 40 36 36
0.261208 -0.850006 0.0801573 50 48 47
0.250693 -0.850107 0.100957 51 50 50
0.248766 -0.915608 0.127786 67 68 71
0.302269 -0.752697 -0.191062 77 73 69
0.264133 -0.814047 0.041669 82 76 75
0.242898 -0.853851 0.123932 50 47 47
0.240905 -0.835564 0.116758 52 50 49
0.225024 -0.832678 0.143465 59 58 58
0.225246 -0.81309 0.139958 60 61 61
0.227524 -0.772816 0.0850139 73 73 70
0.206596 -0.812422 0.162947 58 60 62
0.172749 -0.910144 0.167022 107 102 95
0.54941 -1.17423 0.165509 22 18 18
0.470249 -1.01613 0.185635 34 36 38
0.45123 -1.0003 0.165015 61 59 52
0.432531 -0.99612 0.102296 72 68 63
0.430847 -1.02947 0.0455869 67 68 68
0.429616 -1.04659 0.0459763 69 66 63
0.390585 -1.11171 0.106954 62 62 62
0.430664 -1.01421 0.0254667 77 79 82
0.41132 -1.0477 0.0449525 69 66 64
0.38633 -1.12446 0.114906 62 62 62
0.368976 -1.11094 0.104849 62 63 63
0.360863 -1.22121 0.0864725 56 54 55
0.351418 -1.1111 0.102466 63 64 64
0.410285 -1.03106 -0.0547619 73 73 73
0.410492 -1.03036 -0.0737519 72 74 73
0.390297 -1.04718 -0.134922 73 73 70
0.390352 -1.03342 -0.114657 72 74 72
0.328309 -1.11027 0.0858381 77 79 83
0.311589 -1.17318 0.106131 89 89 92
0.371759 -1.04876 -0.194797 70 68 63
0.296272 -1.22706 0.067169 94 93 90
0.295929 -1.08703 0.0630806 92 92 91
0.349781 -1.05882 -0.229496 61 54 46
0.270257 -1.11071 0.0878131 65 66 66
0.271874 -1.08754 0.0671235 57 57 58
0.235191 -1.14534 0.0862362 103 103 103
0.245501 -1.08494 0.0532249 57 57 55
0.236945 -1.116 0.0787826 78 78 78
0.249935 -1.06677 0.0250584 60 59 58
0.230562 -1.09108 0.044128 53 53 51
0.219603 -1.09818 0.0403252 57 57 55
0.204791 -1.12732 0.0511929 64 62 61
0.269864 -0.716425 -0.210404 123 119 112
0.175586 -1.03275 0.127618 101 96 87
0.156736 -1.06882 0.0970459 107 101 95
0.174907 -0.990389 0.152211 115 109 101
0.158998 -0.929024 0.162194 131 124 112
0.730827 -1.10855 0.402521 23 15 13
0.730476 -1.07164 0.402311 23 15 10
0.71343 -1.10494 0.400805 20 13 9
0.708362 -1.07086 0.404029 20 13 9
0.710196 -1.08881 0.400696 20 13 9
0.71133 -1.05214 0.406549 22 14 10
0.707805 -1.0708 0.385729 19 12 8
0.711308 -1.06062 0.391346 21 13 9
0.690647 -1.08982 0.385493 18 11 8
0.690036 -1.10642 0.385905 20 12 10
0.671066 -1.06884 0.38512 21 14 10
0.65491 -1.09429 0.381987 23 16 15
0.648652 -1.05173 0.36658 22 16 12
0.650452 -1.06906 0.369311 25 18 14
0.649261 -1.10681 0.379267 22 15 14
0.649978 -1.10952 0.367122 19 12 11
0.630743 -1.07048 0.365729 26 20 15
0.62997 -1.09062 0.366266 29 23 19
0.633276 -1.10936 0.364954 23 17 14
0.609575 -1.09021 0.364414 26 20 16
0.611917 -1.11122 0.340629 26 20 16
0.605047 -1.08614 0.348103 29 23 19
0.588539 -1.10855 0.349061 29 23 19
0.569491 -1.10955 0.345003 43 38 34
0.583995 -1.01859 0.335371 32 25 19
0.52988 -1.0453 0.246831 14 12 11
0.530509 -1.03026 0.245683 6 6 6
0.510404 -1.02874 0.226228 13 13 13
0.450482 -1.01398 0.145909 48 50 53
0.430664 -1.02801 0.125617 58 59 58
0.431167 -1.01288 0.125834 59 61 64
0.410868 -1.02826 0.105957 63 64 64
0.432668 -0.998267 0.0702954 72 68 63
0.430635 -1.01362 0.0455108 76 78 81
0.41097 -1.01417 0.0259913 78 80 82
0.410744 -1.01453 0.00598929 78 80 82
0.350495 -1.18388 0.145754 98 99 100
0.410576 -1.0151 -0.0145991 77 80 82
0.347158 -1.17163 0.144125 68 71 77
0.410964 -1.01408 -0.0540276 77 79 81
0.410309 -1.01453 -0.0743795 76 78 81
0.331002 -1.07093 0.184749 101 105 109
0.410301 -1.03259 -0.114289 72 73 72
0.367829 -1.03715 -0.190819 71 68 62
0.290022 -1.06556 0.17125 106 108 111
0.285431 -1.09075 0.174166 70 73 73
0.355392 -1.03214 -0.212253 91 86 80
0.350693 -1.02455 -0.248927 112 101 89
0.270549 -1.0894 0.169998 81 80 80
0.350481 -1.00972 -0.234505 106 94 83
0.353007 -1.01094 -0.193581 79 77 73
0.251262 -1.07096 0.167352 88 91 93
0.251286 -1.06455 0.146721 95 94 93
0.227642 -1.06975 0.146247 91 90 88
0.209886 -1.10922 0.148181 123 118 113
0.234146 -1.03272 0.066806 64 63 60
0.209129 -1.06933 0.12692 113 108 102
0.214937 -1.04833 0.106783 89 85 80
0.211611 -1.05074 0.125143 93 90 86
0.208414 -1.0676 0.106395 122 115 107
0.188104 -1.0897 0.109373 134 125 114
0.206798 -0.99238 0.10814 113 109 103
0.189568 -1.11003 0.105355 118 110 103
0.178259 -1.1161 0.0855417 131 118 105
0.1788 -1.11413 0.102481 121 111 102
0.174294 -1.12784 0.107451 108 102 95
0.178468 -0.97549 0.148032 118 113 106
0.174201 -0.99084 0.167013 114 108 100
0.169586 -0.930052 0.151339 92 87 83
0.17454 -0.947161 0.148506 123 116 105
0.17326 -0.910831 0.151837 93 88 84
0.17557 -0.889283 0.149586 69 66 65
0.155879 -0.907411 0.150955 115 107 100
0.154529 -0.894182 0.15096 104 97 91
0.15015 -0.868506 0.149505 98 93 86
0.139083 -0.862081 0.144436 131 120 108
0.130683 -0.845018 0.133898 132 126 115
0.650747 -1.02739 0.424934 21 14 10
0.640609 -1.03221 0.423537 22 15 11
0.640716 -0.989378 0.416325 23 16 12
0.635767 -1.03232 0.403171 26 19 15
0.614039 -1.05079 0.400534 26 19 15
0.602021 -0.941893 0.417764 28 21 15
0.599814 -1.06337 0.386242 28 22 18
0.591003 -1.07103 0.36323 33 27 23
0.590363 -1.08687 0.36279 29 23 19
0.577189 -1.08645 0.361201 32 26 22
0.575406 -1.23159 0.257767 33 26 22
0.431626 -1.06849 0.261546 71 67 64
0.451151 -1.01254 0.106124 56 58 61
0.390615 -1.1266 0.204914 89 84 80
0.430462 -1.02815 0.0651872 65 66 67
0.370634 -1.08851 0.224501 93 89 85
0.409846 -1.04898 -0.0361982 73 71 67
0.412007 -1.05083 -0.0544271 73 73 73
0.410619 -1.033 -0.0946848 72 74 72
0.410814 -1.0502 -0.0942342 74 74 71
0.410396 -1.0479 -0.115292 74 74 71
0.410198 -1.04829 -0.134236 76 74 70
0.329924 -1.11252 0.196388 81 76 72
0.410484 -1.06586 -0.133745 77 76 75
0.408839 -1.08214 -0.19595 86 81 73
0.393104 -1.08383 -0.218176 75 73 66
0.391189 -1.07021 -0.176208 74 72 67
0.211171 -1.04979 0.146263 106 103 99
0.209966 -1.04983 0.166378 95 93 92
0.220233 -1.07283 0.0252008 92 87 82
0.207 -1.12854 -0.0157992 124 113 101
0.205241 -1.13224 -0.00240595 124 114 100
0.191459 -1.08955 0.165141 120 112 105
0.170849 -1.09043 0.127443 102 97 92
0.171333 -1.11265 0.128031 108 101 95
0.173754 -1.01237 0.151292 108 102 95
0.157938 -1.10617 0.130406 121 116 110
0.186134 -0.791444 0.183443 61 60 58
0.188897 -0.694703 0.0454059 94 94 92
0.172113 -0.771907 0.204512 61 61 59
0.152376 -0.709311 0.207353 71 70 68
0.73174 -1.07759 0.392545 23 16 12
0.741134 -1.09765 0.392733 23 16 12
0.727729 -1.09061 0.392685 23 15 12
0.716896 -1.12632 0.397405 25 17 16
0.709115 -1.10897 0.388483 21 13 11
0.70813 -1.12585 0.390798 23 15 13
0.691229 -1.12929 0.383074 21 13 12
0.686612 -1.0716 0.370789 18 11 7
0.684764 -1.08567 0.372587 19 12 9
0.682917 -1.11126 0.37482 20 13 10
0.682292 -1.12674 0.37536 21 13 12
0.667814 -1.12709 0.388102 21 14 13
0.673596 -1.07476 0.362999 18 11 7
0.672588 -1.09108 0.367004 18 11 8
0.672117 -1.13047 0.364154 21 13 12
0.666321 -1.07363 0.350284 20 13 9
0.662225 -1.13694 0.354896 21 13 12
0.661707 -1.14446 0.355406 20 13 12
0.650534 -1.08977 0.346412 22 16 12
0.652458 -1.1101 0.343138 25 19 15
0.650953 -1.12957 0.346282 23 16 14
0.650861 -1.15092 0.346304 22 14 12
0.654641 -1.15771 0.355744 21 14 10
0.645581 -1.16328 0.346188 23 14 11
0.653164 -1.07693 0.344394 21 14 9
0.645657 -1.08989 0.332012 26 20 16
0.645445 -1.07667 0.329523 23 16 10
0.642773 -1.10516 0.334221 27 21 17
0.632185 -1.12855 0.342666 24 18 14
0.633682 -1.16614 0.338429 23 16 12
0.631591 -1.08929 0.324942 24 18 13
0.630026 -1.1111 0.326582 29 23 19
0.625736 -1.12872 0.331435 28 21 17
0.607239 -1.16911 0.322063 25 19 14
0.622483 -1.10609 0.307158 20 15 12
0.591752 -1.11125 0.32518 32 26 22
0.588833 -1.12922 0.326255 30 25 20
0.586929 -1.14868 0.324581 36 31 27
0.587752 -1.16794 0.324016 32 28 23
0.590569 -1.08983 0.325132 36 31 26
0.574244 -1.13586 0.34247 32 26 23
0.572849 -1.16835 0.321918 66 61 57
0.510216 -1.01587 0.226384 17 17 20
0.490365 -1.01755 0.205431 24 24 26
0.463825 -0.998248 0.182726 43 42 44
0.451106 -1.01402 0.165551 45 47 50
0.391013 -1.06685 0.244921 76 73 69
0.409659 -1.05114 -0.191501 76 75 71
0.34511 -0.908922 -0.216253 99 97 92
0.30563 -0.789785 -0.193897 68 67 61
0.3032 -0.754043 -0.209905 90 90 87
0.217263 -1.03766 0.0416556 135 122 110
0.171763 -1.07249 0.147324 96 92 87
0.160357 -1.12699 0.135996 106 103 95
0.174251 -1.01109 0.164816 118 112 104
0.159358 -1.05711 0.139754 110 103 98
0.158178 -1.08443 0.126758 110 106 100
0.226 -0.749071 0.0666335 73 72 70
0.20397 -0.772828 0.142326 60 62 62
0.204568 -0.793264 0.160945 56 59 59
0.203051 -0.735377 0.103902 66 64 62
0.207971 -0.694285 0.0246492 85 85 84
0.202926 -0.715682 0.0832756 68 67 64
0.186336 -0.750566 0.164907 64 63 61
0.183298 -0.770752 0.182197 62 60 59
0.181606 -0.794927 0.198202 62 61 60
0.205752 -0.694252 0.0440878 81 81 80
0.191933 -0.692188 0.083718 83 83 81
0.181534 -0.752165 0.177496 64 63 60
0.187044 -0.691086 0.103948 82 82 80
0.165819 -0.770265 0.218884 57 56 54
0.165349 -0.731385 0.205695 66 66 64
0.156089 -0.767099 0.21981 63 63 62
0.167321 -0.690789 0.165187 82 82 80
0.163246 -0.711002 0.201447 73 72 70
0.154309 -0.749076 0.222312 59 59 57
0.148532 -0.69424 0.203784 82 82 80
0.139711 -0.729287 0.220239 105 101 96
0.662779 -1.04473 0.444666 23 16 15
0.654955 -1.05508 0.441881 23 16 14
0.640402 -1.06439 0.435739 24 17 13
0.634897 -1.07435 0.405055 20 13 11
0.625917 -1.08606 0.404379 20 12 11
0.623389 -1.08587 0.387163 20 13 10
0.642196 -1.05413 0.353056 22 16 12
0.614579 -1.09348 0.383598 21 14 11
0.629917 -1.06902 0.346412 25 18 12
0.608382 -1.10116 0.399037 20 13 12
0.595167 -1.11228 0.382229 22 15 11
0.583856 -1.12188 0.376108 23 16 12
0.581362 -1.12219 0.369199 25 18 14
0.571272 -1.11291 0.363403 25 18 14
0.568172 -1.232 0.244826 33 27 23
0.567808 -1.25054 0.260979 31 24 20
0.519883 -1.04676 0.316025 34 32 32
0.490921 -1.01667 0.224991 24 25 26
0.47056 -1.01486 0.16556 36 37 40
0.427957 -1.08501 0.261496 77 70 63
0.413078 -1.06609 0.260426 68 64 63
0.372274 -1.06664 0.240463 86 83 78
0.375358 -1.08606 0.235879 78 73 70
0.430785 -1.03161 0.00601021 68 70 69
0.430297 -1.04602 0.00499903 70 69 65
0.430296 -1.04673 -0.0342356 71 70 66
0.429891 -1.02988 -0.054711 71 73 74
0.430323 -1.05005 -0.0739942 73 73 72
0.428963 -1.04803 -0.0554247 73 72 70
0.430643 -1.03103 -0.0942715 73 74 73
0.429506 -1.06568 -0.115796 79 76 70
0.42998 -1.05166 -0.113415 75 75 75
0.429933 -1.06633 -0.135198 79 78 74
0.428568 -1.06845 -0.174471 78 76 73
0.431342 -1.04794 -0.175196 78 77 73
0.392304 -1.0649 -0.114075 76 76 75
0.329703 -1.04611 -0.0358663 66 65 63
0.503926 -1.03688 -0.148472 75 75 72
0.27173 -1.08713 0.20062 103 94 85
0.258755 -1.08418 0.198067 91 84 79
0.209816 -0.992476 0.144407 98 95 90
0.193007 -1.05013 0.145025 130 123 114
0.192316 -1.01044 0.146788 125 118 107
0.191705 -0.991264 0.146187 118 112 103
0.2662 -0.696586 -0.155584 110 110 108
0.236142 -0.71574 -0.166004 106 65 69
0.225083 -0.694749 -0.0350114 95 96 94
0.222238 -0.715002 0.0198319 70 70 66
0.184383 -0.680789 0.0847387 92 92 90
0.158717 -0.784241 0.216364 52 52 50
0.174412 -0.680071 0.0863247 100 100 98
0.164162 -0.678918 0.145205 93 93 93
0.151673 -0.678139 0.145275 93 93 92
0.140449 -0.678843 0.186603 111 111 111
0.135546 -0.678589 0.196994 56 56 56
0.739399 -1.0762 0.456995 35 28 26
0.724239 -1.06646 0.430136 26 19 18
0.702307 -1.10096 0.432865 33 26 25
0.69986 -1.09875 0.421742 28 21 20
0.691224 -1.11227 0.42516 30 24 21
0.695367 -1.09105 0.40459 20 13 10
0.699811 -1.07824 0.40079 19 12 8
0.679368 -1.11955 0.402831 24 17 16
0.652421 -1.13306 0.3841 21 14 13
0.645754 -1.14722 0.389782 23 16 13
0.645951 -1.1259 0.372013 19 12 10
0.633667 -1.1534 0.382239 23 16 12
0.62823 -1.16551 0.384747 24 17 13
0.631706 -1.13135 0.364318 20 13 10
0.626401 -1.14685 0.371048 21 14 11
0.611045 -1.15093 0.364543 21 14 11
0.616443 -1.13764 0.359808 20 14 11
0.589664 -1.14955 0.350293 22 14 13
0.592696 -1.13416 0.341955 23 16 13
0.560824 -1.15746 0.366163 24 17 13
0.5339 -1.20965 0.28404 31 25 20
0.533295 -1.17045 0.247993 38 34 30
0.519834 -1.24563 0.279348 33 27 23
0.515225 -1.20786 0.241596 36 31 26
0.50335 -1.25489 0.242595 38 31 26
0.470963 -1.01398 0.12542 43 44 47
0.450267 -1.02822 0.0656139 61 62 63
0.430593 -1.01439 0.0051925 77 79 82
0.430644 -1.01518 -0.0340037 76 78 81
0.430172 -1.03271 -0.114581 73 74 73
0.420986 -0.996594 -0.108175 103 95 84
0.331282 -1.2319 0.104249 85 86 91
0.338763 -1.05965 -0.22835 83 76 68
0.251354 -1.04974 0.205455 133 132 131
0.234757 -1.06554 0.199726 114 107 100
0.232043 -1.04987 0.202727 134 131 128
0.236878 -1.00861 0.0131404 127 122 113
0.184436 -1.12573 0.0988362 144 137 129
0.174936 -1.03192 0.181707 115 110 105
0.57598 -1.189 0.321918 75 70 66
0.621159 -1.15281 0.213705 16 10 6
0.570347 -1.03156 0.265106 4 4 4
0.509539 -1.01682 0.205017 16 17 18
0.391364 -1.0142 0.244983 75 78 82
0.451042 -1.04456 0.0642211 64 61 59
0.448102 -1.04465 0.0473079 68 65 62
0.450905 -1.04512 0.0252619 69 66 63
0.372248 -1.01528 0.242704 88 91 96
0.370928 -1.01404 0.225945 67 71 75
0.428966 -1.06455 -0.0964581 73 71 66
0.431773 -1.04882 -0.133714 73 73 70
0.431096 -1.06688 -0.154312 75 75 74
0.291038 -1.06476 0.219173 102 96 88
0.365518 -1.08265 -0.217771 69 66 61
0.254064 -1.04565 0.217415 86 82 78
0.211802 -1.0311 0.204068 107 107 105
0.202972 -1.14173 0.00898668 140 129 115
0.157933 -1.05774 0.127699 129 119 110
0.591488 -1.11352 0.287455 70 65 62
0.571537 -1.04932 0.265657 5 4 4
0.499605 -1.04248 0.14847 34 32 29
0.470678 -1.0126 0.105321 47 49 51
0.469141 -1.04287 0.0802712 57 53 51
0.471036 -1.02759 0.0855814 48 49 48
0.464154 -1.04377 0.0636876 61 58 56
0.450704 -1.02847 0.0458954 64 66 66
0.451629 -1.03247 -0.0142644 68 69 68
0.451402 -1.04334 -0.0140425 69 68 65
0.450266 -1.04339 -0.0341328 70 70 66
0.449771 -1.04626 -0.0740623 70 70 68
0.444663 -1.0667 -0.10661 73 72 66
0.451047 -1.04937 -0.135041 74 74 72
0.427096 -1.06184 -0.0730344 72 70 67
0.450499 -1.06634 -0.175195 74 74 72
0.413268 -1.0618 -0.0797445 71 69 66
0.120151 -0.75955 0.0443575 169 164 160
0.632196 -1.09323 0.229601 9 7 4
0.551075 -1.01725 0.244061 7 6 7
0.529961 -1.01629 0.225127 10 10 12
0.510605 -1.0258 0.14527 19 18 18
0.510911 -1.01661 0.145258 22 22 23
0.490333 -1.01541 0.145436 30 31 33
0.490074 -1.04293 0.0797249 49 47 44
0.484581 -1.04377 0.0554442 55 51 49
0.470278 -1.0276 0.0658252 53 54 54
0.47047 -1.02843 0.0456844 59 60 60
0.471893 -1.04211 0.0191297 67 63 61
0.471134 -1.02864 0.0265459 63 65 64
0.470884 -1.03122 0.0057181 66 67 66
0.470834 -1.03173 -0.013442 68 69 67
0.470681 -1.031 -0.0341679 69 70 68
0.470431 -1.04272 -0.0344348 70 69 67
0.450537 -1.03066 0.00601435 67 69 67
0.47092 -1.04461 -0.054656 70 70 67
0.450248 -1.03037 -0.0746043 70 72 72
0.450905 -1.04962 -0.09493 72 72 71
0.472985 -1.06309 -0.156572 74 73 71
0.219231 -1.06482 0.196724 125 114 103
0.184037 -1.14533 0.123799 147 135 123
0.168895 -1.10368 0.168124 130 120 110
0.651947 -1.0682 0.24572 7 6 3
0.6528 -1.15982 0.205653 10 6 5
0.623844 -1.07521 0.245172 9 6 4
0.631295 -1.10232 0.227158 11 6 5
0.618266 -1.20937 0.252395 25 22 16
0.550897 -1.0283 0.20542 5 5 4
0.550952 -1.02732 0.185873 5 5 4
0.47391 -1.03238 0.299102 51 52 52
0.529863 -1.01598 0.165585 13 13 13
0.530597 -1.02615 0.145443 10 9 7
0.510565 -1.01558 0.126041 26 26 27
0.510849 -1.02472 0.105891 26 26 24
0.511427 -1.02635 0.065582 35 34 33
0.490749 -1.01321 0.0848023 44 44 46
0.511251 -1.02662 0.0463961 41 40 38
0.490835 -1.02753 0.0453503 50 50 49
0.490477 -1.02847 0.0257718 56 57 55
0.471576 -1.01461 0.00521301 74 76 79
0.471645 -1.04573 -0.074442 71 70 67
0.490808 -1.04464 -0.134798 73 73 70
0.468559 -1.04747 -0.114605 72 73 71
0.480218 -1.01869 -0.14623 90 85 73
0.337069 -1.06236 0.236203 85 80 73
0.333475 -1.03601 -0.209291 84 80 73
0.718257 -1.13997 0.213008 8 4 4
0.630214 -1.05335 0.240418 20 14 7
0.632819 -1.06987 0.231035 19 13 8
0.638399 -1.09755 0.212622 7 5 5
0.613184 -1.23154 0.267105 61 56 51
0.623659 -1.18314 0.232724 63 60 55
0.550628 -1.01539 0.184571 8 8 8
0.530627 -1.01597 0.14551 16 15 16
0.507365 -0.999045 0.123375 27 25 27
0.510704 -1.01402 0.105095 29 30 32
0.510184 -1.01416 0.0861288 33 34 34
0.490711 -1.0131 0.0654199 51 52 53
0.491577 -1.01268 0.045251 59 61 62
0.490849 -1.01454 -0.033968 74 76 78
0.491327 -1.0305 -0.0547221 71 72 71
0.490284 -1.031 -0.0739229 72 73 72
0.490534 -1.03085 -0.0944345 73 74 73
0.470781 -1.03097 -0.0944642 72 73 72
0.471043 -1.03003 -0.0743313 71 73 72
0.44976 -1.03164 -0.0344016 68 69 68
0.489994 -1.03017 -0.113555 74 74 74
0.470572 -1.03169 -0.133549 74 75 74
0.4678 -1.03513 -0.154212 80 80 79
0.450014 -1.03326 -0.151533 79 78 76
0.451382 -1.0327 -0.133332 73 74 73
0.429919 -1.03212 -0.151425 76 77 75
0.39026 -1.00985 -0.133634 75 78 78
0.192328 -1.01077 0.186109 122 116 109
0.193501 -1.03132 0.184974 103 101 97
0.170575 -1.01356 0.200196 126 118 110
0.17371 -1.04552 0.198161 118 109 101
0.810776 -1.17106 0.205667 30 21 12
0.671956 -1.04948 0.224794 32 22 10
0.610521 -1.23016 0.284256 74 68 64
0.612876 -1.06189 0.214534 4 4 2
0.570289 -1.04462 0.226211 4 4 4
0.591197 -1.02988 0.205729 5 5 4
0.550499 -1.01473 0.165419 10 10 10
0.570121 -1.02475 0.146164 8 7 5
0.550556 -1.01579 0.125937 15 14 13
0.550617 -1.01551 0.10559 19 17 15
0.530158 -1.02594 0.10604 19 18 16
0.530846 -1.02531 0.0860748 24 22 20
0.530072 -1.01352 0.0842856 28 27 27
0.511015 -0.998417 0.0864983 33 31 32
0.530783 -1.02731 0.0452076 33 32 30
0.510467 -1.03033 -0.0140845 61 62 60
0.510951 -1.02919 -0.0333377 68 69 67
0.510398 -1.04377 -0.0554113 68 68 66
0.510864 -1.03005 -0.0741568 73 74 73
0.510356 -1.03109 -0.0946841 74 75 74
0.491492 -1.04466 -0.0762191 71 70 68
0.509955 -1.01408 -0.0951251 75 77 78
0.510349 -1.03228 -0.133781 74 74 73
0.908667 -1.2323 0.204118 19 13 8
0.856867 -1.23043 0.143188 27 19 10
0.852287 -1.23242 0.130861 26 18 9
0.604577 -1.08404 0.268223 6 6 4
0.626671 -1.2326 0.259933 51 46 41
0.590951 -1.02641 0.16634 6 5 4
0.590301 -1.01368 0.165427 10 8 7
0.571329 -1.01498 0.125773 16 13 11
0.570207 -1.02749 0.126019 11 8 6
0.549943 -1.0268 0.0655453 26 23 19
0.549672 -1.02801 0.0263897 34 32 29
0.530778 -1.02771 0.0253228 41 39 37
0.530473 -1.02861 0.00539617 48 47 44
0.530822 -1.01232 0.00518325 55 55 55
0.530885 -1.02906 -0.0153408 55 54 52
0.531213 -1.031 -0.0343993 60 61 59
0.530329 -1.02871 -0.0537935 69 69 68
0.530863 -1.04184 -0.0387339 57 57 55
0.51059 -1.01417 -0.0535841 74 76 78
0.529637 -1.04324 -0.0731649 69 69 65
0.53008 -1.04398 -0.0940051 73 72 69
0.511616 -1.04482 -0.134381 74 74 70
0.326883 -1.22984 0.0682715 93 93 92
0.310619 -1.19097 0.106285 92 89 90
0.336555 -0.928796 -0.213345 100 101 94
0.296959 -1.06284 -0.110322 46 46 42
0.316428 -0.912972 -0.174734 64 63 56
0.31468 -0.886966 -0.189881 65 64 58
0.19429 -1.01149 0.127373 130 124 113
0.863169 -1.1526 0.24806 38 29 23
0.631112 -1.01451 0.186065 25 19 14
0.629093 -1.02979 0.165572 25 20 13
0.634407 -1.04729 0.163165 22 16 11
0.64194 -1.05333 0.164118 31 23 14
0.611703 -1.02812 0.165161 11 7 5
0.611279 -1.01482 0.164553 16 12 10
0.589939 -1.02424 0.146669 8 7 5
0.589988 -1.01328 0.125778 19 15 13
0.559769 -0.999534 0.098505 27 20 13
0.551314 -1.01535 0.0860849 23 21 19
0.551164 -1.01396 0.0667034 29 26 25
0.549916 -1.01216 0.045867 33 31 30
0.550693 -1.01157 0.025859 39 37 36
0.531045 -1.01316 -0.0143152 62 62 63
0.530664 -1.0143 -0.034003 69 69 70
0.530401 -1.02923 -0.074652 74 74 73
0.511247 -1.02896 -0.054341 72 73 72
0.490952 -1.02948 -0.131537 75 75 75
0.386516 -1.05449 -0.210136 71 71 66
0.897682 -1.22927 0.198127 29 21 13
0.854443 -1.1939 0.148597 30 22 14
0.584481 -1.1903 0.327107 21 17 13
0.584793 -1.21076 0.326852 21 18 13
0.609994 -1.02526 0.147158 14 9 6
0.530249 -1.01577 0.124895 19 18 18
0.550474 -1.0116 -0.0143138 53 52 52
0.551197 -1.03032 -0.0553497 63 62 60
0.549534 -1.03021 -0.0746116 69 69 67
0.55016 -1.02953 -0.0939551 75 75 74
0.530246 -1.01254 -0.0934803 75 76 76
0.17821 -1.04673 0.186891 125 115 110
0.168529 -1.06815 0.177673 119 111 102
0.26711 -1.09224 0.0484905 55 57 57
0.863333 -1.13101 0.244867 39 31 23
0.730098 -1.05536 0.221925 37 30 20
0.670491 -1.06631 0.2287 27 18 7
0.671253 -1.06963 0.237418 20 15 7
0.667012 -1.01306 0.206805 26 19 13
0.650665 -1.06548 0.226334 31 21 9
0.660014 -1.04106 0.214786 31 20 8
0.650685 -1.04865 0.225898 31 21 9
0.650723 -1.02943 0.209648 30 21 11
0.607955 -1.05677 0.281666 5 5 3
0.632383 -1.04773 0.226755 31 21 9
0.645393 -1.01278 0.16779 38 32 23
0.631325 -1.01104 0.165285 29 23 18
0.629902 -1.02773 0.146032 21 16 11
0.612116 -1.01209 0.125795 26 20 16
0.570838 -1.03033 -0.0148202 43 42 37
0.570902 -1.02985 -0.034088 51 49 45
0.550471 -1.01208 -0.0547256 67 67 67
0.530903 -1.01291 -0.0540153 73 74 75
0.430782 -1.01372 0.14542 56 58 62
0.390924 -1.01354 0.16586 62 65 69
0.180386 -0.965291 0.126954 152 142 128
0.882933 -1.20133 0.239382 28 19 10
0.632407 -1.20242 0.255301 3 1 0
0.629752 -0.993964 0.148764 51 44 38
0.589963 -1.047 0.168311 5 5 3
0.557403 -1.04207 0.211844 4 4 4
0.560736 -1.04144 0.187479 4 4 2
0.568097 -1.04166 -0.0352751 45 43 37
0.570602 -1.00915 -0.0535427 58 56 55
0.56987 -1.03004 -0.0739027 64 62 61
0.568115 -1.043 -0.0589621 53 50 43
0.56679 -1.04388 -0.0746444 57 55 48
0.553968 -1.0437 -0.0547641 54 52 46
0.55099 -1.01246 -0.0740063 72 72 71
0.550123 -1.04439 -0.0743694 62 61 55
0.530294 -1.04259 -0.0562248 65 65 61
0.409171 -1.0367 -0.173409 88 87 84
0.73352 -1.07291 0.212923 30 21 11
0.669973 -1.03409 0.220211 28 20 10
0.650102 -1.0171 0.224614 37 28 19
0.631146 -0.998422 0.200499 27 19 10
0.597736 -0.998594 0.16388 17 11 7
0.570804 -1.01651 0.205431 7 7 6
0.594217 -0.998792 0.12514 31 25 18
0.530639 -1.02783 -0.112916 76 77 76
0.318347 -0.936279 -0.166964 65 64 58
0.32776 -0.901583 -0.225546 67 66 58
0.319581 -0.909471 -0.1949 66 65 59
0.297035 -0.875064 -0.15357 68 67 61
0.258929 -0.915721 -0.00682286 60 60 56
0.882913 -1.19339 0.234171 35 26 17
0.821782 -1.17333 0.174049 31 22 11
0.823873 -1.21315 0.151951 29 20 10
0.657218 -0.997876 0.216981 40 33 26
0.608222 -1.02447 0.128449 17 12 9
0.570564 -1.00924 -0.0337667 53 51 50
0.37092 -1.01304 0.145283 70 73 77
0.291742 -1.01271 0.10575 82 85 87
0.230821 -1.02929 0.218893 174 174 174
0.21027 -0.99311 0.203915 72 74 74
0.861054 -1.18605 0.25668 32 25 21
0.821078 -1.13919 0.213781 33 26 19
0.80991 -1.11857 0.192075 33 26 19
0.235781 -0.69389 -0.133005 129 119 119
0.232577 -0.694383 -0.113652 125 117 116
0.910281 -1.20949 0.189677 37 30 23
0.92085 -1.22035 0.195177 37 30 23
0.902554 -1.18823 0.188105 38 30 24
0.895771 -1.18021 0.179177 38 30 24
0.885363 -1.17561 0.170308 37 30 22
0.530329 -1.01114 0.0446516 39 39 39
0.530594 -1.01209 0.0249273 46 46 47
0.551193 -1.01146 -0.0346646 60 60 59
0.510476 -1.01314 0.0263929 56 58 59
0.470623 -1.01261 0.0855226 53 55 57
0.47122 -1.01228 0.0657254 61 63 65
0.471142 -1.01278 0.0456957 69 71 73
0.489904 -1.03549 -0.150816 73 75 75
0.71758 -1.14608 0.212129 7 5 4
0.500722 -1.03292 0.317262 67 65 63
0.459586 -1.03888 0.295627 25 23 22
0.574698 -0.997966 -0.0349859 51 49 48
0.510772 -1.01433 -0.0142983 70 71 73
0.530948 -1.01232 -0.0744348 75 76 77
0.51129 -1.01431 -0.0344846 74 75 77
0.528149 -1.01673 -0.111016 75 75 75
0.510091 -1.01291 -0.0739182 75 77 78
0.451311 -1.01225 0.0653193 69 71 75
0.450413 -1.01302 0.0457044 74 76 79
0.490433 -1.01464 -0.0538924 75 77 78
0.509622 -1.01547 -0.113178 75 76 76
0.469996 -1.01494 -0.0341951 75 77 79
0.451252 -1.01453 0.00624914 76 78 81
0.490566 -1.01366 -0.0939092 75 77 79
0.450753 -1.01554 -0.0346074 75 77 79
0.450639 -1.01495 -0.0143531 75 77 80
0.470321 -1.0146 -0.0944826 74 77 78
0.487851 -1.01872 -0.127709 74 76 75
0.451015 -1.01558 -0.0549495 75 77 79
0.430949 -1.01488 -0.0147992 76 79 81
0.450835 -1.01508 -0.0738517 75 77 79
0.450081 -1.01398 -0.113698 75 77 79
0.430785 -1.01447 -0.0746408 76 78 81
0.430427 -1.01309 -0.0946348 76 78 80
0.411307 -1.01209 -0.11301 75 78 79
0.188725 -1.04336 0.104753 139 129 115
0.154981 -0.829803 0.124629 124 118 107
0.628019 -1.03118 0.304664 9 7 6
0.654557 -1.01928 0.261135 40 31 23
0.636652 -1.02031 0.244879 38 29 20
0.545028 -1.01586 -0.108507 77 75 74
0.354473 -1.01582 0.238771 96 99 104
0.469372 -1.01815 -0.130746 76 77 77
0.451054 -1.01591 -0.131819 80 80 80
0.246332 -0.692824 -0.0799158 104 108 107
0.243904 -0.678386 -0.0969592 119 117 117
0.195522 -0.965846 0.107714 114 111 104
0.243867 -0.677023 -0.113898 124 108 107
0.253246 -0.694622 -0.169927 135 129 125
0.2306 -0.67524 -0.116367 126 115 104
0.172275 -0.829279 0.105378 81 79 77
0.176511 -0.928216 0.112597 173 164 151
0.216386 -0.691216 -0.112322 126 99 74
0.192726 -0.691293 -0.0499745 148 146 145
0.152572 -0.809898 0.108211 114 110 103
0.178372 -0.699352 -0.0123492 149 133 135
0.140303 -0.806492 0.0959401 171 160 142
0.575025 -0.997179 -0.0137967 50 47 46
0.390413 -0.999188 -0.11487 75 78 79
0.217963 -1.04469 0.215926 128 122 110
0.2482 -0.770505 0.044964 76 75 73
0.244925 -0.773149 0.0652774 75 75 72
0.243541 -0.777207 0.0838342 76 76 72
0.222064 -0.779824 0.118887 77 77 73
0.156062 -0.785449 0.0251554 135 129 121
0.306852 -1.1711 0.125708 94 92 94
0.262435 -0.739015 -0.0380915 79 79 75
0.263653 -0.717393 -0.0612756 81 83 81
0.262531 -0.697689 -0.0984323 98 102 99
0.199771 -0.98485 0.1022 90 88 85
0.191896 -0.946979 0.0888468 110 106 99
0.229478 -1.01708 0.216061 80 85 87
0.223071 -0.934343 0.180023 51 55 54
0.196017 -0.991141 0.204193 113 112 107
0.218587 -0.696332 -0.0977476 111 99 83
0.565501 -0.998915 0.0413554 37 33 33
0.548779 -0.999334 0.0628282 31 29 30
0.53076 -0.998667 0.0850844 28 25 28
0.523508 -0.998622 0.105738 24 22 24
0.532321 -0.999075 0.0653464 32 30 30
0.509917 -0.99831 0.105987 28 26 28
0.491739 -0.999189 0.125215 30 30 32
0.486675 -0.999838 0.143717 28 29 33
0.482482 -1.00063 0.157643 28 29 33
0.552888 -1.00001 0.0250196 42 39 38
0.532312 -0.99993 0.0464259 38 37 37
0.489467 -0.999749 0.105456 34 35 37
0.476432 -1.00012 0.12851 35 36 38
0.471682 -1.00071 0.141871 34 35 39
0.538306 -1.0004 0.0308617 42 40 39
0.493546 -1.00019 0.084377 40 39 41
0.497866 -1.00045 0.0704927 43 42 44
0.325659 -0.814983 -0.184851 80 77 72
0.197921 -0.946803 0.0666204 125 117 107
0.219806 -0.769013 -0.128301 96 86 72
0.22241 -0.840652 0.156505 63 66 67
0.208461 -0.950539 0.0679473 69 69 69
0.195905 -0.929488 0.0691653 97 93 89
0.177551 -0.7819 -0.0285355 106 105 99
0.19442 -1.00781 0.217396 69 68 65
0.190149 -0.997271 0.217928 34 34 34
0.368951 -0.996616 -0.131952 70 72 74
0.273474 -1.12301 0.00769449 87 87 85
0.225259 -0.753578 0.0826834 69 69 68
0.222639 -0.738523 0.0601056 77 77 77
0.208426 -0.932675 0.0646094 101 97 96
0.196061 -0.863643 -0.00977395 132 132 130
0.213787 -0.947142 0.0448766 114 112 106
0.197061 -0.844427 0.0263019 102 101 101
0.219168 -0.948331 0.0290903 122 116 109
0.235438 -0.974349 0.0114741 93 92 90
0.227545 -0.672602 -0.0751479 99 100 100
0.24562 -0.67677 -0.136931 118 118 111
0.254855 -0.699375 -0.190934 120 108 92
0.21702 -0.672383 -0.112167 142 132 117
0.344922 -0.970929 0.109721 76 78 84
0.34474 -0.988632 0.111628 76 78 85
0.345615 -0.993531 0.117427 74 76 84
0.336947 -1.18567 0.141373 179 181 186
0.326638 -0.907512 0.0491026 79 82 86
0.315942 -1.15379 0.136662 86 91 98
0.309866 -1.18111 0.13684 128 131 132
0.324796 -0.885424 0.0328789 77 81 84
0.308381 -1.18727 0.126924 99 101 101
0.318021 -1.23057 0.101452 80 78 79
0.320229 -0.899113 0.0359386 79 81 87
0.30955 -0.859433 0.0234381 74 77 80
0.309845 -0.87047 0.026273 76 80 83
0.271459 -1.13009 0.129207 64 67 70
0.304858 -0.859627 0.0133071 74 77 80
0.255108 -1.13211 0.102345 103 97 93
0.299475 -1.10326 -0.0710774 97 95 94
0.199816 -0.869461 0.0475542 87 85 85
0.227604 -0.931007 0.0128826 90 89 87
0.348517 -1.2318 0.103459 93 96 103
0.328892 -1.20933 0.0677318 86 87 88
0.309735 -1.19004 0.0652339 71 72 72
0.307498 -1.21102 0.068411 94 94 94
0.238701 -1.06817 0.103255 64 65 64
0.177577 -0.806619 0.031551 123 117 110
0.406733 -1.06205 -0.0313761 78 80 86
0.30905 -1.17007 0.087702 87 89 93
0.386336 -1.0622 -0.0551276 80 82 88
0.297975 -1.17106 0.0665708 80 79 77
0.303014 -1.19137 0.052536 49 49 49
0.292347 -1.09182 0.0510076 110 108 108
0.284795 -1.14995 0.0323685 57 59 59
0.269601 -1.08226 -0.00515532 56 59 60
0.237997 -0.95051 0.00896501 66 67 66
0.332316 -1.08319 -0.208881 71 69 66
0.26473 -0.697946 -0.189227 105 101 93
0.362979 -1.23219 0.0976595 106 108 114
0.366207 -1.18601 0.0728829 80 82 88
0.388303 -1.15064 -0.00650066 77 80 84
0.337042 -1.12743 0.0533987 73 76 78
0.325384 -1.21703 0.049375 83 83 81
0.324526 -1.22648 0.0529004 85 85 85
0.322421 -1.25468 0.0528246 112 105 103
