ply
format ascii 1.0
comment Created by Open3D
element vertex 1209
property double x
property double y
property double z
property uchar red
property uchar green
property uchar blue
end_header
0.888725 -0.57097 -0.194982 163 160 163
1.00837 0.148465 -0.448711 227 232 237
1.0676 -0.490607 -0.337427 211 215 218
1.09041 -0.470121 -0.173386 223 226 240
1.0902 -0.48973 -0.173849 224 226 240
1.09067 -0.490519 -0.153863 220 224 237
1.09018 -0.510059 -0.154823 218 222 235
1.10746 -0.565154 -0.0709358 131 159 217
1.07064 -0.470291 -0.173739 223 227 240
0.965885 0.109998 -0.487507 227 229 230
1.01362 -0.488858 -0.435521 204 207 210
0.949383 0.107546 -0.511534 225 231 234
0.964906 0.0281091 -0.491344 224 228 228
0.970997 -0.130246 -0.47338 218 218 217
0.970438 -0.169819 -0.471517 214 214 211
0.970507 -0.190898 -0.470934 216 215 212
0.950529 -0.0913368 -0.494215 219 221 220
0.950278 -0.110751 -0.494134 220 220 219
0.97047 -0.370705 -0.473471 216 215 212
0.988342 -0.470733 -0.473401 217 218 218
0.946815 -0.249879 -0.510307 216 221 227
0.950297 -0.309402 -0.494244 216 215 212
0.967289 -0.349737 -0.490466 214 216 217
0.96731 -0.369351 -0.491877 214 216 216
0.968412 -0.431517 -0.492143 215 216 215
0.970039 -0.450831 -0.490967 216 217 218
0.889507 0.36981 -0.554618 228 230 229
0.927317 -0.170241 -0.530519 219 220 221
0.925557 -0.230446 -0.531441 217 219 219
0.932357 -0.231099 -0.514793 218 217 216
0.946704 -0.29073 -0.510098 214 217 220
0.851761 0.388593 -0.535127 212 214 213
0.949946 -0.470024 -0.511039 219 219 219
1.01195 -0.470129 -0.23434 214 219 225
0.910777 -0.129368 -0.548336 220 222 224
0.907746 -0.151585 -0.552112 219 221 223
0.909137 -0.171597 -0.550244 218 221 223
0.911241 -0.209952 -0.535207 218 217 215
0.924406 -0.250432 -0.532813 216 218 220
0.925871 -0.312869 -0.53092 215 215 214
0.929218 -0.349706 -0.530802 214 215 215
0.927447 -0.370037 -0.531047 215 213 212
0.928811 -0.391452 -0.53021 214 215 216
0.943339 -0.470089 -0.528166 216 221 226
0.971736 -0.470887 -0.334685 171 176 179
0.850861 0.349494 -0.572553 230 231 229
0.906038 -0.213992 -0.55162 217 218 220
0.906643 -0.231256 -0.550963 217 219 220
0.908108 -0.251096 -0.549189 217 218 219
0.906691 -0.269292 -0.547969 217 217 216
0.911673 -0.31213 -0.548083 215 215 216
0.912377 -0.351625 -0.548124 214 215 216
0.922154 -0.396728 -0.545538 214 219 224
0.930472 -0.510761 -0.531436 156 157 158
0.991608 -0.491541 -0.174379 208 213 218
0.831648 0.389136 -0.608085 196 201 204
0.828831 0.369193 -0.592355 224 224 222
0.990786 -0.530597 -0.133924 205 208 216
0.992685 -0.550961 -0.0723648 171 178 218
0.99293 -0.457333 0.143163 193 192 198
0.806602 0.36963 -0.633119 198 200 201
0.888344 -0.51478 -0.591357 158 159 159
0.989831 -0.575668 -0.0371481 147 152 194
0.690842 -0.55043 0.426471 29 33 40
0.769338 0.189606 -0.652479 228 229 227
0.789618 0.348312 -0.632853 231 231 229
0.865492 -0.47071 -0.606643 145 146 153
0.956721 -0.513167 -0.151206 157 161 167
0.968833 -0.549301 -0.095965 171 178 222
0.852926 -0.511408 -0.613711 141 143 140
0.974149 -0.568283 -0.0550504 120 129 201
0.915068 -0.568686 0.564197 30 32 46
0.652926 -0.372332 -0.788106 210 209 203
0.550352 -0.854561 0.428693 60 59 57
0.470855 -0.729626 0.245775 200 164 122
0.855421 0.229746 -0.539344 229 230 227
1.5732 0.368692 0.163073 214 216 213
1.58646 0.309064 0.149708 225 229 225
1.58708 0.290014 0.149827 225 229 225
1.58568 0.252372 0.134966 227 229 225
1.5861 0.249302 0.150273 224 227 223
1.58614 0.232193 0.134931 227 229 223
1.59113 0.189225 0.164982 220 217 214
1.59122 0.0689647 0.164533 220 223 219
1.5915 -0.01078 0.1651 218 221 217
1.59121 -0.0909482 0.165727 213 216 212
1.58961 -0.150695 0.145665 215 217 213
1.59004 -0.170986 0.166485 213 216 211
1.59426 -0.311284 0.202121 214 217 224
1.59029 -0.390788 0.206211 212 217 227
1.5936 -0.411418 0.222616 213 217 226
1.57364 -0.49241 0.221854 111 111 110
1.56412 -0.00818604 0.115391 218 224 226
1.56617 -0.0564163 0.110912 217 218 214
1.56995 -0.131786 0.106388 215 217 215
1.56699 -0.170739 0.108992 215 219 217
1.56826 -0.229991 0.128271 204 205 206
1.54235 -0.0145667 0.0940209 219 224 224
1.48275 0.147962 0.0334386 220 224 225
1.46305 0.0673084 0.0144153 219 222 219
1.46258 0.0508445 0.0138246 219 223 222
1.4633 0.00641553 0.0135425 218 221 217
1.46411 -0.012152 0.0133273 219 220 221
1.464 -0.0519779 0.0143115 217 219 215
1.44591 0.240757 -0.0056089 222 228 230
1.40307 0.110133 -0.048224 219 223 224
1.40277 0.0886949 -0.0481015 218 222 225
1.40395 -0.0701902 -0.0458458 215 218 217
1.32139 0.252596 -0.127605 222 227 232
1.32496 0.20946 -0.125771 223 226 226
1.28481 0.18977 -0.166566 222 228 230
1.24157 0.268259 -0.205836 223 227 228
1.24243 0.209216 -0.206825 223 227 224
1.22417 0.0508374 -0.22776 220 224 226
1.20348 0.211229 -0.247608 224 227 227
1.20369 0.187327 -0.247104 223 227 228
1.16616 0.367914 -0.270963 206 209 209
1.18301 0.0683374 -0.270543 221 226 231
1.23159 -0.509621 0.0256356 101 105 109
1.1627 0.186402 -0.291538 223 228 233
1.23065 -0.529879 0.0437741 74 93 141
1.1431 0.294615 -0.30511 223 230 232
1.12899 -0.640066 0.432249 195 183 171
1.18679 -0.49437 0.0448676 139 141 151
1.16937 -0.529289 0.145873 62 99 150
1.18104 -0.557522 0.184968 90 104 129
1.18181 -0.56599 0.187496 124 127 135
1.15067 -0.531104 0.145264 73 96 142
1.14275 -0.596289 0.236367 140 145 153
0.982399 0.232958 -0.471706 226 231 236
0.984943 0.190842 -0.472567 226 231 236
0.968461 0.168941 -0.487562 228 230 235
0.965939 0.147299 -0.486674 227 230 230
1.10868 -0.550992 0.223245 90 98 127
0.969177 -0.0900875 -0.473206 219 220 218
0.990859 -0.331911 -0.454445 216 215 213
1.0707 -0.430863 0.0247986 209 215 229
1.07136 -0.43064 0.0442812 212 219 232
0.944769 0.151057 -0.51146 227 232 233
0.94237 0.12864 -0.517292 226 231 237
0.97062 -0.250181 -0.472657 217 217 215
1.08935 -0.531212 0.204559 70 81 125
1.08941 -0.532049 0.223747 62 71 108
0.905554 0.383146 -0.530417 210 212 212
0.97087 -0.510791 -0.473244 167 170 171
1.05131 -0.409737 -0.0147054 228 232 246
1.08742 -0.590213 0.242191 148 150 153
0.927801 -0.190723 -0.512513 216 215 213
0.930581 -0.210291 -0.514352 217 217 215
0.949051 -0.330903 -0.493663 215 214 212
0.950434 -0.371237 -0.494063 215 214 212
0.950597 -0.43075 -0.493966 214 215 212
1.0313 -0.410539 -0.0364896 225 230 243
1.05017 -0.449889 0.106271 189 193 202
1.08492 -0.552132 0.244936 29 40 73
0.9041 -0.0310451 -0.548486 223 224 222
0.905645 -0.0535453 -0.548387 222 224 223
0.905511 -0.0713302 -0.548078 222 222 220
0.930796 -0.3303 -0.514145 215 214 212
0.931416 -0.351101 -0.514854 214 214 212
0.93146 -0.370689 -0.513147 214 213 210
0.930352 -0.429417 -0.515047 214 214 211
1.01252 -0.412894 -0.054215 222 227 239
1.05126 -0.490923 0.145239 179 182 193
1.05014 -0.491581 0.16522 175 177 189
1.07062 -0.5141 0.202993 84 97 156
1.06999 -0.531649 0.226111 66 77 128
1.0903 -0.570987 0.267351 112 116 119
0.890323 -0.130608 -0.55367 218 218 216
0.910527 -0.290494 -0.534001 215 214 212
0.909426 -0.310927 -0.533031 215 213 211
0.907089 -0.350539 -0.534472 214 214 211
1.03066 -0.430551 0.0260573 207 213 227
1.03062 -0.450236 0.106466 190 193 203
0.772767 -0.584534 0.303594 79 81 86
1.05094 -0.512226 0.184819 141 152 183
0.850077 0.36911 -0.592053 223 225 224
0.886618 -0.21038 -0.571175 219 219 219
0.889435 -0.226421 -0.567694 217 220 220
0.889071 -0.230969 -0.552838 217 216 215
0.888178 -0.272175 -0.554818 215 215 213
0.890574 -0.309624 -0.554855 213 213 211
0.910635 -0.45116 -0.551884 214 214 212
0.910141 -0.472933 -0.552429 218 218 217
0.988919 -0.409171 -0.0539079 226 232 244
1.01068 -0.431402 0.0454108 216 220 229
1.03062 -0.490678 0.165249 177 180 195
0.870039 -0.230934 -0.575771 216 217 215
0.885906 -0.309851 -0.570498 214 215 216
0.889035 -0.353109 -0.56967 214 214 214
0.8857 -0.372037 -0.572918 212 214 213
0.892196 -0.490945 -0.556123 165 165 164
0.909674 -0.509445 -0.512413 161 165 163
0.979607 -0.417079 -0.0877919 209 215 224
0.990269 -0.430209 0.00647911 224 229 238
1.00974 -0.449797 0.0855537 201 204 211
1.04937 -0.548542 0.262824 50 61 94
1.04928 -0.573174 0.264677 97 101 116
0.865569 -0.311662 -0.590888 213 213 213
0.868111 -0.369914 -0.59099 213 213 211
0.748747 -0.471668 -0.711062 194 173 178
0.866903 -0.389 -0.590297 213 213 209
0.873938 -0.411245 -0.572023 212 212 210
0.871253 -0.451191 -0.573492 212 211 209
0.869182 -0.45197 -0.593024 212 213 211
0.974319 -0.414405 -0.0359703 226 230 241
1.03071 -0.532057 0.225018 55 70 138
0.674684 -0.310623 -0.677982 218 218 215
0.786442 0.350419 -0.645821 231 233 233
0.847205 -0.272697 -0.610286 216 215 216
0.847882 -0.331083 -0.607971 214 213 213
0.851692 -0.369529 -0.592638 212 211 209
0.851001 -0.391562 -0.596971 211 211 210
0.866585 -0.430285 -0.592604 212 211 209
0.871125 -0.492221 -0.59372 167 169 168
0.97239 -0.432406 0.00453345 220 223 234
0.993781 -0.454047 0.105332 207 208 215
1.01077 -0.511503 0.185194 183 194 217
0.85107 -0.27135 -0.535061 217 217 215
0.768104 0.367527 -0.651464 227 230 231
0.827484 -0.277017 -0.624684 216 217 218
0.832077 -0.312673 -0.617049 212 211 209
0.848255 -0.389366 -0.609996 212 212 211
0.850024 -0.412496 -0.6095 212 212 210
0.852193 -0.45001 -0.609826 212 211 209
0.973112 -0.433018 0.024438 210 212 220
1.01108 -0.512282 0.225403 101 124 182
1.01234 -0.459886 0.162087 184 185 191
0.828615 -0.493411 -0.634748 174 176 174
0.969164 -0.434696 0.0661019 204 208 216
0.971818 -0.453047 0.085847 210 212 218
0.99104 -0.492857 0.184514 188 191 208
1.00985 -0.530699 0.245184 49 63 136
1.00983 -0.530582 0.265274 41 55 110
0.808091 -0.471141 -0.654857 212 212 212
0.810816 -0.470081 -0.63342 167 168 167
0.828469 -0.510428 -0.634372 127 128 126
0.974125 -0.457464 0.12398 212 213 220
1.00883 -0.547821 0.285365 29 44 97
0.808841 -0.490907 -0.65209 179 180 179
0.990581 -0.494747 0.204991 188 194 212
0.991152 -0.531153 0.244776 65 75 139
0.707715 0.372493 -0.709623 222 225 226
0.771088 -0.350045 -0.676133 211 210 208
0.787822 -0.431511 -0.670419 210 209 207
0.787204 -0.450123 -0.672671 209 209 209
0.789729 -0.490756 -0.671977 205 205 207
0.8115 -0.489768 -0.575189 127 130 127
0.954567 -0.471317 0.14491 208 209 217
0.971471 -0.513326 0.204111 141 150 200
0.990187 -0.531722 0.285323 36 48 102
0.991966 -0.569797 0.266251 79 84 99
0.762581 -0.410743 -0.690947 211 210 209
0.768883 -0.471777 -0.691906 194 193 191
0.81115 -0.488787 -0.535743 138 140 136
0.953924 -0.493384 0.163868 213 215 227
0.953309 -0.495635 0.182217 210 214 230
0.990499 -0.550236 0.305056 42 50 77
0.990288 -0.533299 0.324909 35 46 79
1.12866 -0.65212 0.265043 141 128 119
0.851521 -0.591878 0.264737 46 49 56
1.58673 0.389003 0.151392 196 199 197
1.59558 0.289642 0.181509 217 218 210
1.59496 0.269043 0.181105 217 218 211
1.59647 0.249266 0.181015 217 218 210
1.59116 -0.0510819 0.16481 217 219 215
1.5873 -0.247662 0.148509 220 221 220
1.58816 -0.309662 0.187946 209 214 222
1.58747 -0.329951 0.188972 212 217 225
1.58632 -0.411152 0.188609 209 214 223
1.58847 -0.451308 0.186913 209 212 219
1.59313 -0.510042 0.221762 85 84 81
1.59131 -0.527097 0.205004 79 77 73
1.5756 0.269262 0.16127 217 217 210
1.57656 0.249268 0.160649 218 219 212
1.57686 0.208536 0.1594 217 217 211
1.57725 0.189314 0.15945 217 210 207
1.57163 0.0491187 0.145433 220 223 218
1.58884 -0.16996 0.12836 214 217 215
1.58317 -0.268774 0.151932 214 217 219
1.58172 -0.350319 0.171951 219 221 226
1.58248 -0.454449 0.174504 204 207 215
1.58687 -0.508659 0.184369 159 161 163
1.58961 -0.527626 0.186514 89 88 85
1.5709 0.20876 0.144867 220 220 216
1.54786 0.389129 0.163877 178 180 177
1.36839 -0.52233 -0.0854345 178 187 193
1.37418 -0.538011 0.0803206 91 91 95
1.35629 -0.535218 0.0632711 91 91 96
1.31542 -0.532112 0.020093 96 96 99
1.31113 -0.551838 0.0260094 93 94 96
1.30802 -0.633648 0.110301 135 134 129
1.28982 -0.568009 0.00935672 92 93 96
1.28283 -0.590789 0.0113505 87 89 98
1.25524 -0.562943 -0.0355207 127 130 153
1.26819 -0.634481 0.0659966 129 128 124
1.23169 -0.551953 -0.0559201 82 96 125
1.22859 -0.56973 -0.059198 94 95 103
1.21049 -0.570291 -0.0749535 101 110 137
1.22199 -0.612499 0.0460684 105 110 121
1.22338 -0.615293 0.0603302 116 116 123
1.22593 -0.631736 0.0862954 102 101 101
1.22533 -0.648592 0.105191 97 96 95
1.19052 -0.555772 -0.0938161 110 123 159
1.14342 -0.440023 0.0828261 223 227 244
1.03004 -0.549865 0.224606 40 54 123
1.05004 -0.470514 -0.255558 215 217 221
1.00666 -0.493034 -0.475592 162 165 165
1.00945 -0.5128 -0.494742 152 155 157
1.09014 -0.472493 0.158875 182 184 210
1.08996 -0.492809 0.184896 172 178 207
1.10682 -0.515088 0.286343 97 109 156
1.09068 -0.491076 0.207565 138 151 198
1.08895 -0.495604 0.221036 109 121 171
1.09244 -0.509116 0.245686 125 134 171
1.10406 -0.535347 0.300181 24 43 96
1.04948 -0.418004 0.0636429 212 220 235
1.05065 -0.431731 0.0855323 191 201 216
1.06968 -0.473107 0.164788 188 191 209
1.08892 -0.511354 0.264861 73 85 140
1.09043 -0.509339 0.285822 76 89 157
1.10574 -0.571287 0.321822 145 149 154
0.964848 -0.497871 -0.527775 167 170 170
1.05078 -0.451025 0.125055 191 194 199
1.08869 -0.552122 0.307032 108 114 124
1.0898 -0.553092 0.319952 104 108 119
1.08943 -0.591171 0.324863 114 114 115
0.887679 0.307068 -0.548344 230 231 229
0.885677 0.269756 -0.552415 230 231 229
0.902828 0.107965 -0.547738 228 228 226
1.06912 -0.496947 0.263093 112 122 169
0.688198 -0.688458 -0.832584 126 121 108
1.07071 -0.508264 0.286404 93 103 157
0.868803 0.289184 -0.570621 231 232 230
0.868733 0.251129 -0.571126 230 231 229
0.974463 -0.491152 -0.339174 141 146 148
0.993755 -0.469676 -0.172838 218 223 229
1.04922 -0.492118 0.204831 148 152 181
1.73073 -0.658935 0.147318 111 109 101
1.07079 -0.532383 0.324633 32 49 111
0.847459 0.308463 -0.590203 231 232 231
0.846879 0.288386 -0.590735 231 232 230
1.01037 -0.470154 0.0470911 202 205 213
1.03091 -0.472119 0.18419 179 179 185
1.05136 -0.496597 0.263801 132 138 172
0.829434 0.329129 -0.593473 230 231 228
0.932825 -0.490495 -0.39739 123 125 125
1.02983 -0.477033 0.202764 183 183 190
1.0306 -0.493144 0.205717 142 149 177
1.06542 -0.533877 0.341294 33 48 99
0.808275 0.34813 -0.612094 230 231 228
0.969619 -0.510426 -0.0940748 208 211 218
1.03156 -0.493806 0.243511 151 158 189
1.03228 -0.493927 0.262683 173 176 193
0.750785 -0.650822 -0.077633 145 139 130
1.04802 -0.533544 0.34487 57 65 86
1.05023 -0.551734 0.345597 50 57 69
1.23811 -0.719836 -0.118142 105 105 112
0.917075 -0.47044 -0.352977 155 159 164
0.850965 -0.69084 -0.632999 156 152 142
1.01254 -0.470649 0.184862 180 180 189
1.00989 -0.473093 0.204144 182 184 194
1.01157 -0.492479 0.207006 165 174 194
1.02858 -0.497234 0.283412 175 180 203
1.05167 -0.511448 0.344644 62 71 121
0.972322 -0.471788 0.0652408 228 231 236
1.01243 -0.491652 0.245146 185 188 203
1.01066 -0.492 0.264671 186 190 206
1.03174 -0.529327 0.346173 37 47 72
0.76448 -0.705816 -0.226235 181 168 146
0.851076 -0.508382 -0.554664 127 129 125
0.969867 -0.470617 0.0459471 230 232 239
0.990224 -0.470702 0.206656 193 194 202
0.853249 -0.487865 -0.516587 139 143 141
0.952263 -0.474055 0.045393 225 227 234
0.989939 -0.492155 0.24254 202 203 218
1.00972 -0.511587 0.32635 36 48 89
0.788528 -0.493874 -0.711738 187 188 188
0.450396 -0.728389 0.185488 222 189 148
0.788329 -0.502662 -0.71961 160 154 155
0.850039 -0.487227 -0.49354 124 125 122
0.971042 -0.472783 0.205954 214 215 222
1.01132 -0.498036 0.305045 132 147 180
1.0111 -0.550472 0.386017 32 39 53
0.775549 -0.504558 -0.73723 233 217 224
0.956821 -0.459583 0.143343 219 220 223
0.970094 -0.488945 0.245868 208 209 224
0.989983 -0.495682 0.329285 75 85 121
0.957004 -0.464663 0.178912 222 222 226
0.957549 -0.472939 0.203921 221 222 227
0.970061 -0.494359 0.286996 158 165 205
0.957299 -0.485827 0.246655 170 172 202
0.989255 -0.494862 0.349912 82 95 144
0.871288 -0.533363 -0.134305 143 136 113
0.970626 -0.494046 0.348411 76 85 139
0.72676 0.19006 -0.707618 229 230 227
0.728172 -0.530251 -0.716232 129 124 121
0.970353 -0.494575 0.367411 47 58 118
0.971098 -0.548416 0.366479 34 40 54
0.849977 -0.532941 -0.111386 151 141 121
0.892627 -0.51572 0.065521 133 134 169
1.59605 0.338388 0.199087 229 231 224
1.5966 0.209013 0.180671 217 214 207
1.61146 -0.0508882 0.185161 217 219 215
1.6183 -0.0920907 0.198197 205 209 208
1.61135 -0.251163 0.204904 208 213 219
1.59371 0.348854 0.179915 218 220 214
1.5904 0.309516 0.166304 220 223 218
1.59091 0.269196 0.165382 221 223 218
1.59344 -0.504946 0.239342 91 88 84
1.00516 -0.646403 0.220384 29 32 42
1.57796 0.130529 0.160038 213 210 206
1.57845 0.0893852 0.159173 216 217 211
1.58594 0.068741 0.150418 223 225 221
1.58585 0.0485248 0.150268 222 225 220
1.58886 -0.290153 0.18716 209 214 222
1.58832 -0.470749 0.208012 182 186 191
0.504834 -0.0716088 -0.909882 231 232 233
1.57421 -0.41144 0.2024 214 218 227
0.951603 -0.536578 -0.175759 196 187 157
1.38531 -0.54644 0.0710666 84 82 83
1.30663 -0.655529 0.0483867 97 93 90
1.20356 0.393322 -0.246251 182 186 187
1.20691 -0.62767 0.124527 106 106 107
1.18506 -0.632256 0.163983 115 114 115
1.16976 -0.670091 0.183682 131 125 123
0.650871 -0.516106 0.388359 55 59 66
1.04745 0.148786 -0.371855 219 220 218
1.14779 -0.55194 0.222661 74 81 108
1.14788 -0.610157 0.228017 136 135 136
1.1425 -0.631186 0.238308 135 133 133
1.13344 -0.609911 0.246738 136 134 133
1.13325 -0.631633 0.247304 138 134 132
1.13145 -0.670637 0.224275 119 105 93
0.967692 0.249462 -0.451159 224 225 223
1.12649 -0.612529 0.263268 127 126 127
1.01139 -0.488832 -0.394418 202 207 208
1.11214 -0.569544 0.267419 141 142 144
1.11222 -0.590975 0.266821 129 129 130
1.11589 -0.60982 0.267942 130 128 127
1.11136 -0.651562 0.264742 127 112 101
0.989825 -0.450875 -0.454759 218 217 213
1.00718 -0.511061 -0.43257 185 188 189
1.10158 -0.535607 0.260767 28 42 89
1.72683 -0.15062 0.303676 167 166 161
0.9488 -0.169884 -0.49202 215 215 211
1.09068 -0.530491 0.266684 43 56 105
1.09154 -0.549721 0.267278 78 82 94
1.09333 -0.588435 0.265525 140 142 145
1.08933 -0.59303 0.284948 144 143 143
1.0901 -0.611993 0.285387 135 134 134
1.11087 -0.611745 0.28678 124 123 122
0.927512 0.0297866 -0.512747 224 224 221
0.990483 -0.489203 -0.374483 161 165 168
1.03267 -0.431771 -0.0774381 224 228 241
1.07069 -0.510679 0.228066 98 108 157
1.07161 -0.510155 0.244826 107 116 157
1.08951 -0.568555 0.286316 119 120 123
0.913547 -0.570274 -0.27182 148 143 123
1.06743 -0.530272 0.264733 40 49 86
0.910518 -0.250401 -0.53362 218 217 213
1.01047 -0.451192 0.00924012 219 221 229
1.04967 -0.510794 0.245992 72 86 138
1.06904 -0.591233 0.301831 134 136 138
0.866815 0.230397 -0.572878 230 231 228
0.869141 0.209466 -0.570797 230 230 228
0.868988 0.168975 -0.571692 229 229 226
0.868763 0.0692825 -0.571869 225 226 223
0.869215 0.047979 -0.57264 224 224 222
0.888499 -0.170897 -0.551216 216 215 212
0.92137 -0.474995 -0.545517 229 227 226
0.968512 -0.490265 -0.317789 131 134 138
1.04807 -0.512667 0.264513 54 66 120
0.936879 0.12895 -0.460639 226 227 226
1.0504 -0.532607 0.286781 42 53 86
0.96912 -0.496282 0.406935 55 65 111
0.843273 0.328623 -0.589757 231 232 229
0.846463 0.229693 -0.589961 230 230 228
0.848278 0.129353 -0.591971 228 228 225
0.862978 0.0476371 -0.586366 228 228 224
0.869253 -0.0310303 -0.572239 223 222 218
0.86925 -0.0709461 -0.572829 221 220 217
0.872202 -0.130926 -0.572708 218 218 215
0.890957 -0.411037 -0.554487 213 212 209
1.67275 -0.709124 0.209218 102 101 93
0.931192 -0.490057 -0.373224 125 126 125
0.990531 -0.491195 -0.0338512 215 218 227
1.01122 -0.452017 0.125174 188 189 197
1.0515 -0.56891 0.302663 128 130 135
1.04799 -0.590825 0.304331 148 147 148
1.04852 -0.628676 0.302383 142 140 139
0.826393 0.290615 -0.609371 231 232 230
0.829247 0.231249 -0.609619 230 230 228
0.826997 0.209792 -0.610047 229 230 228
0.827013 0.167708 -0.613024 229 230 227
0.828977 0.127822 -0.610307 228 229 225
0.852101 -0.0892786 -0.594181 220 219 216
0.862363 -0.151661 -0.591556 220 219 216
0.8655 -0.249516 -0.587608 216 214 211
0.873583 -0.290577 -0.572733 215 213 210
0.872334 -0.33075 -0.572578 213 212 208
1.0129 -0.45495 0.143085 188 189 197
1.05163 -0.53064 0.304257 43 53 83
0.807312 0.309079 -0.627634 231 232 229
0.806732 0.268729 -0.629234 230 231 228
0.805671 0.246625 -0.628694 230 231 227
0.805685 0.229438 -0.630338 230 231 228
0.808251 0.209402 -0.631186 230 231 226
0.842828 -0.0950032 -0.608341 221 220 217
0.842453 -0.111878 -0.60725 219 219 216
0.844963 -0.132203 -0.607897 220 219 216
0.588736 -0.871895 0.467133 30 28 27
0.849556 -0.208188 -0.605441 218 218 214
0.84964 -0.226661 -0.604622 218 217 213
0.848361 -0.231445 -0.592328 217 215 212
0.850045 -0.250705 -0.59361 216 215 212
0.912426 -0.490399 -0.376413 126 127 126
1.031 -0.547645 0.306213 43 51 69
1.029 -0.573376 0.306469 108 110 116
1.05061 -0.596331 0.319765 146 146 148
0.789823 0.328754 -0.632435 230 231 228
0.787372 0.249926 -0.648341 231 231 228
0.786866 0.228615 -0.649563 231 231 229
0.806932 0.126856 -0.632225 228 229 226
0.832867 -0.188853 -0.625679 221 219 216
0.831319 -0.250749 -0.615094 216 214 211
0.831899 -0.269481 -0.615561 215 213 209
1.0279 -0.591384 0.324815 107 107 111
0.769129 0.32972 -0.653054 231 232 228
0.76696 0.313447 -0.670936 234 234 230
0.812828 -0.211793 -0.632191 217 215 212
0.82095 -0.238851 -0.637543 220 216 214
0.890486 -0.491563 -0.375579 126 128 128
0.99359 -0.475127 0.224237 194 193 202
1.02577 -0.577617 0.3192 90 92 97
0.749792 0.348132 -0.672073 231 231 229
0.749822 0.248961 -0.671446 229 230 227
0.851522 -0.490905 -0.474909 120 121 118
0.970172 -0.459023 0.170052 208 209 215
1.01994 -0.609025 0.333449 47 46 49
0.908355 -0.535324 -0.191974 95 102 118
0.97369 -0.490545 0.224626 205 211 227
0.990286 -0.511566 0.287052 48 60 106
0.991595 -0.532022 0.305724 35 47 91
0.790251 -0.480351 -0.685487 210 209 209
0.810991 -0.508173 -0.593656 131 133 130
0.830635 -0.489766 -0.472926 119 120 118
0.891691 -0.533168 -0.155782 106 105 104
0.993518 -0.564658 0.32588 33 39 53
0.829725 -0.492789 -0.396376 112 113 112
0.889472 -0.533512 -0.193153 118 115 107
0.893713 -0.52055 -0.0981955 185 166 125
0.972394 -0.512608 0.286162 45 59 122
0.759573 -0.704824 -0.602546 158 154 144
0.791909 -0.491309 -0.556313 132 135 132
0.811925 -0.491214 -0.474768 114 114 108
0.88988 -0.552502 -0.113266 202 186 153
0.970672 -0.512681 0.306122 46 58 107
0.970407 -0.532331 0.325956 38 48 81
0.846783 -0.29105 -0.551118 214 214 211
0.989567 -0.591397 0.362785 22 26 40
0.850747 -0.672527 -0.593889 171 166 151
0.799337 0.00955902 -0.583212 228 228 226
0.731725 -0.488918 -0.733567 206 200 201
0.793387 -0.491422 -0.476462 120 120 116
0.855998 -0.535177 -0.215621 99 99 94
0.932756 -0.497904 0.140094 198 206 225
0.950773 -0.511568 0.286181 63 75 151
0.970758 -0.549348 0.346209 51 56 69
0.970506 -0.566966 0.344711 37 42 57
0.969313 -0.573034 0.36168 26 31 46
0.723952 -0.491141 -0.749676 163 155 160
0.869709 -0.54724 -0.0730116 214 199 168
0.911759 -0.51355 0.125178 102 114 198
0.951318 -0.531474 0.325359 46 53 78
0.705394 -0.492754 -0.772422 179 179 179
0.729278 -0.510978 -0.693955 148 145 143
0.837118 -0.536442 -0.195439 106 105 108
0.833024 -0.552939 -0.192277 137 132 126
0.850229 -0.55098 -0.154145 181 169 142
0.930618 -0.496481 0.253534 76 87 174
0.950461 -0.549063 0.32775 57 64 90
0.951481 -0.569472 0.365103 24 28 43
0.830564 -0.548829 -0.174833 122 118 112
0.851379 -0.531579 -0.0536235 246 222 154
0.893209 -0.515011 0.143305 71 84 178
0.928822 -0.511258 0.30845 71 76 104
0.951383 -0.565672 0.343848 34 39 54
0.585808 0.369276 -0.80935 224 226 227
0.667466 -0.492168 -0.792548 186 184 181
0.817253 -0.554632 -0.170658 176 174 169
0.649298 -0.502111 -0.821109 158 157 154
0.669758 -0.513458 -0.773546 152 150 148
0.693292 -0.509385 -0.696746 140 121 120
0.705628 -0.513068 -0.590724 123 122 115
0.911111 -0.497959 0.245707 69 81 170
0.949088 -0.57028 0.40805 20 24 35
0.586335 -0.767745 0.46399 200 178 153
0.568047 -0.0103611 -0.830586 219 221 220
1.61626 0.367656 0.201084 221 224 220
1.61117 0.348814 0.185586 222 226 222
1.60853 0.310413 0.17058 226 230 225
1.60665 0.268827 0.169793 225 228 224
1.60688 0.208963 0.170143 224 215 213
1.22831 -0.686375 0.086324 92 91 89
1.61074 0.169115 0.184878 222 220 217
1.61089 -0.151043 0.165995 213 215 210
1.61088 -0.170882 0.166094 213 214 210
1.60802 -0.230485 0.188655 214 219 224
1.61041 -0.270715 0.205955 206 211 218
1.60794 -0.330364 0.209079 214 219 227
1.6072 -0.369787 0.208933 208 213 222
1.60674 -0.390607 0.208542 211 215 224
1.61217 -0.470627 0.244158 165 167 169
1.61382 -0.510154 0.243091 87 86 82
1.61061 -0.549028 0.166167 83 82 77
1.63018 -0.611315 0.0829087 83 81 74
1.6272 -0.632979 0.0497501 73 71 66
1.62981 -0.67356 0.0657425 88 85 78
1.62916 -0.707163 0.0856518 106 103 94
1.60638 -0.0514709 0.170552 218 220 217
1.60919 -0.170479 0.147424 213 215 212
1.60755 -0.230749 0.168429 207 208 207
1.6044 -0.347891 0.191717 214 215 218
1.61246 -0.709412 0.0675709 106 102 94
0.468918 -0.0910034 -0.912607 204 207 205
1.58589 0.189241 0.150246 223 223 220
1.58908 -0.533285 0.16626 92 90 86
1.61199 -0.652474 0.0457167 88 85 78
1.60838 -0.690188 0.0474591 103 100 94
1.57055 0.407906 0.12668 197 201 200
1.58927 -0.670065 0.0321636 99 97 89
1.59113 -0.688437 0.0430476 113 111 104
1.56785 0.4109 0.108677 197 202 202
1.56601 0.329365 0.130431 224 228 225
1.58791 -0.711335 0.0301294 91 88 81
1.57027 -0.649377 0.00907047 82 80 73
1.57133 -0.672082 0.0266359 108 106 99
1.57366 -0.691535 0.0263391 114 111 103
1.56671 -0.628464 0.00807667 77 75 70
1.56858 -0.709462 0.00763456 108 106 97
1.55149 -0.651332 0.00309283 84 82 75
1.55014 -0.673732 0.00425139 119 118 109
1.55434 -0.691935 0.00563987 103 100 94
1.55395 -0.713811 0.00244605 104 101 94
1.54878 -0.724526 -0.00017691 152 147 136
1.52708 -0.686763 -0.0148783 113 110 103
1.51442 -0.604933 0.116536 65 63 60
1.50985 -0.629777 0.00418981 89 86 81
1.52978 -0.653936 -0.00872613 80 76 72
1.52809 -0.72308 0.0020595 143 138 131
1.51201 -0.67171 -0.0145487 98 96 90
1.51176 -0.689561 -0.0139635 122 120 111
1.49161 -0.551936 0.0669332 91 90 86
1.49212 -0.688904 -0.034791 127 125 119
1.48761 -0.612163 -0.0357866 87 85 81
1.48703 -0.70713 -0.0492533 99 96 89
1.47569 -0.620521 -0.0432069 79 75 73
1.47181 -0.648964 -0.0332806 90 88 84
1.45097 -0.671705 -0.0543918 119 118 112
1.45234 -0.669116 0.0787636 126 125 116
1.43136 -0.6105 -0.0355632 88 85 83
1.40461 0.369034 -0.028269 213 214 212
1.42808 -0.59412 -0.0303042 92 91 89
1.4311 -0.630818 -0.0398406 87 85 82
1.4127 -0.609416 -0.0358278 90 87 85
1.41019 -0.690182 -0.05445 112 110 103
1.39197 -0.590734 -0.035698 90 88 86
1.39605 -0.607447 -0.0383227 75 72 71
1.39257 -0.623097 -0.0419487 77 75 72
1.35119 -0.592829 -0.0713465 95 95 95
1.27012 -0.655384 0.046739 93 89 88
1.27564 -0.759823 0.115741 89 83 79
1.24957 -0.654685 -0.0130178 103 103 102
1.24722 -0.668992 0.0454075 92 89 87
1.25306 -0.687113 0.0492852 88 83 80
1.25336 -0.739337 0.0851868 117 103 87
1.23195 -0.670488 0.0235224 101 98 96
1.21834 -0.640293 -0.0783061 113 110 114
1.22473 -0.688882 0.0271683 114 111 111
1.23591 -0.786495 0.133139 112 105 98
1.15162 -0.548282 -0.111422 167 174 215
1.1758 -0.749406 0.0406423 94 78 66
1.12994 -0.490269 -0.132775 219 223 237
1.13239 -0.510047 -0.115788 207 212 228
1.13119 -0.547996 -0.0149661 151 161 200
1.09286 -0.488279 -0.341022 168 169 172
1.11182 -0.491082 -0.135282 219 222 236
1.08807 -0.468676 -0.337059 214 215 221
1.00684 0.392764 -0.433626 200 203 203
1.00782 0.0692505 -0.410821 219 220 217
0.98756 0.148908 -0.430425 221 222 219
1.07173 -0.512134 -0.135722 215 218 231
1.04987 -0.509644 -0.133878 217 220 232
1.07095 -0.5318 -0.0135152 207 209 223
1.09185 -0.549633 0.147244 52 70 130
1.01144 -0.470525 -0.335419 183 187 189
0.947173 0.0494181 -0.47126 220 222 220
1.03039 -0.51025 -0.134421 219 221 232
1.05058 -0.53318 -0.0534689 211 214 230
1.05129 -0.529965 0.00376961 195 198 214
0.947512 -0.189071 -0.489722 215 215 213
0.968191 -0.449359 -0.471784 217 216 212
1.01131 -0.491296 -0.154803 218 222 233
1.0534 -0.544218 0.084714 129 137 164
1.05068 -0.543492 0.105095 122 131 173
0.909438 0.248654 -0.512338 226 226 224
0.907965 0.189429 -0.511221 224 224 222
0.908879 0.169725 -0.512173 224 225 223
1.03075 -0.5105 -0.0147643 213 215 225
1.03052 -0.532636 0.0656293 183 188 208
1.05134 -0.529596 0.0851633 171 183 205
1.05124 -0.570174 0.185535 43 57 128
0.908083 -0.0307216 -0.512155 220 221 220
1.01092 -0.508969 -0.0542256 223 225 235
1.03031 -0.529175 0.0879807 189 194 211
1.05098 -0.610444 0.185697 56 66 119
0.950648 -0.509392 -0.393718 116 118 119
0.950921 -0.530331 -0.392924 110 111 111
0.96757 -0.565071 -0.311397 141 146 158
1.01196 -0.512521 0.0652181 200 200 212
1.03105 -0.550291 0.185261 82 100 184
1.04946 -0.591183 0.205437 52 61 98
0.868461 0.0699561 -0.552113 222 224 222
0.868332 0.050219 -0.552934 221 223 222
0.889349 -0.0502585 -0.551826 222 222 218
0.906117 -0.392532 -0.53286 214 213 209
0.908415 -0.450686 -0.532805 216 215 211
0.931 -0.510793 -0.396403 112 114 113
0.932832 -0.529449 -0.396923 109 110 108
0.930902 -0.550659 -0.413487 112 111 109
0.929975 -0.569509 -0.414282 138 133 123
0.991966 -0.513224 -0.113592 217 220 231
0.991406 -0.511959 -0.0143225 221 223 231
1.01087 -0.529925 0.105387 184 190 213
1.03196 -0.607345 0.226726 113 114 121
0.849099 0.109071 -0.572068 225 226 225
0.868335 -0.190577 -0.571312 216 215 212
0.889841 -0.451748 -0.554173 197 197 194
0.890436 -0.47211 -0.554393 194 194 194
0.931355 -0.509594 -0.434667 135 136 136
0.989669 -0.51064 0.0253916 217 219 228
0.991619 -0.512012 0.0449491 212 213 222
1.01134 -0.548747 0.164546 57 70 123
0.829144 0.227715 -0.593266 227 228 226
0.82884 0.188692 -0.593069 227 227 225
0.8511 -0.0504719 -0.592909 222 221 217
0.872621 -0.371224 -0.571901 212 211 207
0.871111 -0.390093 -0.57298 212 211 207
0.910062 -0.511511 -0.413146 110 111 110
0.911554 -0.531229 -0.412156 111 112 109
0.910438 -0.570925 -0.435156 107 106 102
0.970418 -0.510965 -0.013857 222 225 232
0.990659 -0.510263 0.0860621 202 203 217
0.990577 -0.52933 0.105462 170 175 209
1.00939 -0.590568 0.205502 40 52 119
1.01042 -0.610089 0.226855 104 105 115
0.809958 0.269622 -0.612786 229 230 228
0.809287 0.209516 -0.612883 228 228 226
0.828021 0.08771 -0.611458 226 226 223
0.828522 0.0487995 -0.61064 223 224 222
0.828339 -0.0509754 -0.6152 221 221 216
0.845297 -0.189497 -0.591343 216 215 212
0.852204 -0.331164 -0.589855 213 211 208
0.892127 -0.530926 -0.415127 109 109 106
0.890556 -0.568402 -0.434056 92 93 99
0.951584 -0.512595 -0.0547684 216 218 224
0.970649 -0.512003 0.0460955 202 205 221
0.98984 -0.549668 0.147371 77 88 138
0.789936 0.309061 -0.631484 229 230 228
0.790074 0.288831 -0.633499 230 231 229
0.805962 0.190141 -0.631355 229 230 228
0.808275 0.168202 -0.631365 228 229 226
0.810343 0.00896711 -0.613962 222 223 221
0.775628 -0.499157 0.482035 12 13 22
0.809217 -0.0101332 -0.612572 221 222 221
0.808697 -0.0311681 -0.61325 220 221 219
0.82791 -0.0700768 -0.612848 220 220 217
0.827929 -0.132707 -0.615162 219 217 215
0.827349 -0.151612 -0.611763 216 214 211
0.827123 -0.170776 -0.614235 216 215 212
0.84878 -0.51073 -0.573999 141 144 142
0.889787 -0.529937 -0.433722 110 110 107
0.891218 -0.586226 -0.390381 118 116 107
0.950969 -0.511978 -0.0140001 219 221 228
0.969313 -0.510452 0.0863492 203 204 221
0.970051 -0.52909 0.10614 159 163 205
0.990576 -0.551349 0.186304 90 100 164
0.99105 -0.570454 0.206087 75 81 124
0.98981 -0.590322 0.225768 43 54 116
0.768993 0.288585 -0.654125 229 230 227
0.787434 0.211019 -0.648003 229 229 226
0.786296 0.189877 -0.64915 229 229 225
0.788348 0.168299 -0.649718 228 229 224
0.78772 0.149023 -0.649431 228 228 224
0.790735 0.0285507 -0.63461 222 224 223
0.791164 0.00819076 -0.634107 222 223 221
0.80784 -0.0297523 -0.633347 222 221 218
0.807844 -0.0703894 -0.634106 221 220 217
0.808386 -0.0915239 -0.632716 220 219 216
0.808135 -0.168481 -0.629635 216 216 212
0.80983 -0.190181 -0.630527 217 216 213
0.812293 -0.25186 -0.63232 216 214 211
0.822224 -0.288382 -0.624849 217 215 212
0.823059 -0.302505 -0.625138 216 214 211
0.830894 -0.489305 -0.612868 162 163 161
0.86951 -0.530498 -0.43267 108 107 104
0.87096 -0.55089 -0.454402 110 110 107
0.872154 -0.569088 -0.437497 82 84 95
0.872349 -0.592813 -0.454886 102 104 110
0.950328 -0.510991 0.0659537 200 204 224
0.970118 -0.530523 0.14521 139 146 200
0.97027 -0.550402 0.166751 101 110 171
0.765936 0.189687 -0.668299 229 229 225
0.770446 0.168558 -0.669517 229 229 225
0.788829 0.04893 -0.653523 225 225 221
0.787706 0.00923612 -0.653182 223 223 219
0.78891 -0.0707785 -0.650847 220 219 215
0.791715 -0.111774 -0.650557 219 218 214
0.791612 -0.130571 -0.65037 218 217 213
0.790411 -0.170068 -0.64956 216 215 211
0.793749 -0.21228 -0.650905 215 214 211
0.80878 -0.292507 -0.634376 213 211 208
0.809125 -0.432479 -0.63207 209 208 205
0.811958 -0.490162 -0.633246 168 170 168
0.83145 -0.489758 -0.535926 138 142 140
0.852843 -0.50948 -0.437361 118 117 112
0.85207 -0.590272 -0.453939 113 113 112
0.868814 -0.609971 -0.441192 77 84 101
0.93029 -0.512068 -0.0140857 223 227 236
0.951273 -0.512259 0.0854494 188 192 222
0.950153 -0.529061 0.0861067 132 138 203
0.969942 -0.55009 0.185938 94 101 146
0.970709 -0.550358 0.205408 82 88 132
0.970128 -0.570153 0.205861 92 96 129
0.987463 -0.606457 0.279867 28 32 47
0.745038 0.288988 -0.691836 231 231 227
0.745101 0.264376 -0.68958 230 230 227
0.849288 0.289072 -0.552835 227 227 225
0.744937 0.25012 -0.688818 230 231 228
0.750489 0.149518 -0.673483 227 228 226
0.768586 0.068044 -0.672238 226 225 221
0.77117 -0.0702013 -0.670322 221 220 216
0.772214 -0.10994 -0.671721 220 218 215
0.77095 -0.131512 -0.672653 219 217 213
0.767795 -0.150744 -0.671887 216 215 210
0.784158 -0.209437 -0.665268 217 215 212
0.78717 -0.250035 -0.653536 215 213 210
0.788419 -0.350199 -0.651322 211 209 206
0.791978 -0.410764 -0.652702 209 208 204
0.789824 -0.431013 -0.651754 207 206 203
0.791653 -0.470009 -0.654291 189 189 190
0.931685 -0.511965 0.00549391 206 211 222
0.931863 -0.512337 0.0458588 178 190 222
0.949771 -0.550238 0.166118 108 117 190
0.969744 -0.590885 0.266575 94 95 105
0.724905 0.310063 -0.706126 230 233 230
0.726595 0.291377 -0.707586 231 232 229
0.727178 0.264314 -0.705464 231 231 227
0.728047 0.250204 -0.707086 230 230 226
0.728416 0.209401 -0.692279 228 229 227
0.745024 0.087601 -0.69 226 227 224
0.746176 0.0689604 -0.690687 226 226 222
0.747 0.0476758 -0.691237 226 225 222
0.746269 0.0295906 -0.689923 225 224 221
0.749103 -0.0910075 -0.693828 220 219 215
0.748361 -0.131824 -0.693582 218 217 213
0.76687 -0.250892 -0.673256 215 213 210
0.769041 -0.27096 -0.673454 214 213 208
0.768757 -0.309601 -0.674215 211 210 206
0.769374 -0.430264 -0.67403 209 208 203
0.829095 -0.529403 -0.451484 109 108 105
0.828977 -0.549341 -0.451307 114 113 108
0.831023 -0.589481 -0.455012 146 139 120
0.910458 -0.529715 -0.0139982 206 191 162
0.910592 -0.529905 0.0262338 131 123 136
0.92989 -0.528331 0.0457884 110 126 195
0.948722 -0.546935 0.126582 103 109 164
0.950617 -0.550874 0.20649 85 91 132
0.968683 -0.603704 0.286524 33 36 50
0.710483 0.29839 -0.725697 232 232 227
0.708213 0.248466 -0.711439 230 230 228
0.708983 0.209997 -0.712713 228 229 227
0.72477 0.146696 -0.711797 228 228 224
0.725335 0.08682 -0.712852 225 225 221
0.72571 0.068076 -0.712082 225 225 221
0.726992 0.0476423 -0.711565 225 224 221
0.729455 -0.0722205 -0.713188 222 221 217
0.74722 -0.168836 -0.692316 217 216 212
0.749917 -0.231401 -0.693594 215 214 210
0.750385 -0.251201 -0.69212 215 213 210
0.811778 -0.49066 -0.493342 117 119 115
0.811919 -0.531137 -0.454214 115 114 109
0.813848 -0.590886 -0.456528 154 145 121
0.823529 -0.626176 -0.458581 69 76 85
0.83033 -0.626754 -0.391971 117 118 113
0.910559 -0.530516 0.0459453 108 114 164
0.951902 -0.592564 0.264099 81 82 94
0.689566 0.268413 -0.73285 229 230 228
0.690731 0.210405 -0.730135 228 229 227
0.703929 0.148927 -0.730489 229 229 225
0.707344 0.0865448 -0.729829 225 224 221
0.710709 0.0676815 -0.729105 225 225 221
0.710879 0.0491218 -0.72881 225 224 220
0.712451 -0.0305713 -0.729659 223 222 218
0.726015 -0.133006 -0.714521 219 217 214
0.730969 -0.312237 -0.714572 211 210 206
0.727829 -0.332688 -0.714477 213 211 208
0.791227 -0.510791 -0.473659 124 123 118
0.789288 -0.528183 -0.474261 117 116 110
0.811897 -0.529324 -0.475817 110 109 105
0.811276 -0.590063 -0.47416 106 104 101
0.810446 -0.633104 -0.457887 154 149 136
0.931085 -0.551117 0.185762 100 106 147
0.931095 -0.551755 0.20504 93 96 123
0.949719 -0.592124 0.284023 44 47 59
0.682492 0.188293 -0.749591 230 230 227
0.690408 0.0693934 -0.747271 225 224 220
0.6927 0.00814454 -0.747524 224 223 219
0.708115 -0.112601 -0.73203 220 219 215
0.707818 -0.151145 -0.728991 217 215 211
0.708974 -0.170661 -0.72888 218 217 212
0.712643 -0.191551 -0.730192 217 216 212
0.71008 -0.28834 -0.730562 212 211 206
0.721144 -0.300102 -0.726367 215 213 210
0.729816 -0.473215 -0.731208 200 185 185
0.749792 -0.508363 -0.632385 136 139 138
0.789017 -0.587887 -0.474012 113 111 106
0.81001 -0.627828 -0.393631 152 147 136
0.830314 -0.608723 -0.294348 159 152 127
0.85271 -0.589958 -0.215844 218 215 210
0.663093 0.187925 -0.76938 229 229 225
0.665659 0.147756 -0.767905 229 228 224
0.67094 0.03379 -0.768056 225 224 221
0.66834 -0.0118278 -0.771727 224 222 219
0.686497 -0.069489 -0.752612 222 220 217
0.68806 -0.131274 -0.75101 219 217 213
0.687468 -0.150087 -0.75108 217 215 212
0.691245 -0.19114 -0.75058 216 216 211
0.7024 -0.287868 -0.745704 217 214 209
0.71068 -0.49106 -0.752522 212 211 215
0.771566 -0.531964 -0.476969 124 121 114
0.832454 -0.587231 -0.172068 229 197 152
0.849928 -0.564878 -0.113857 229 207 162
0.86827 -0.564702 -0.0133752 192 185 181
0.912126 -0.55174 0.18419 98 102 128
0.931657 -0.591175 0.2632 81 81 90
0.932494 -0.590382 0.287336 44 48 60
0.643258 0.22265 -0.791642 232 233 226
0.644106 0.2116 -0.787379 230 230 226
0.645811 0.187611 -0.786824 229 229 225
0.647695 0.149816 -0.787892 228 228 224
0.646471 0.128533 -0.788322 227 227 223
0.647753 0.107989 -0.786803 227 227 223
0.770341 -0.630038 0.22534 48 49 57
0.651306 0.0901992 -0.786275 227 227 223
0.649339 0.0482754 -0.787986 225 223 220
0.655686 0.00943144 -0.774708 224 222 219
0.668087 -0.0312308 -0.77285 223 222 218
0.667268 -0.0524117 -0.772428 222 221 217
0.665084 -0.0713581 -0.771141 222 220 217
0.683701 -0.291773 -0.75651 213 211 207
0.689414 -0.478372 -0.773871 212 210 207
0.751038 -0.490061 -0.536505 117 116 109
0.753354 -0.509925 -0.514279 127 124 115
0.75234 -0.529296 -0.492448 124 122 116
0.827935 -0.566464 -0.133173 240 225 195
0.852464 -0.570855 -0.0533794 209 196 182
0.870484 -0.550521 0.0264729 195 176 151
0.891174 -0.551407 0.125012 126 131 165
0.912172 -0.552462 0.203234 96 98 122
0.931858 -0.574491 0.265451 159 161 172
0.62946 0.129078 -0.805512 227 227 223
0.633274 0.11366 -0.805892 229 229 225
0.633392 0.0895228 -0.79583 226 226 222
0.6348 0.0483313 -0.792981 224 222 219
1.61754 -0.490698 0.257919 122 122 120
0.644485 0.00937493 -0.792667 224 222 219
0.643852 -0.0112457 -0.793535 224 223 219
0.647622 -0.0909136 -0.79083 220 218 214
0.648973 -0.110609 -0.790502 220 217 213
0.812103 -0.595233 -0.251203 174 163 134
0.831582 -0.568361 -0.114596 232 204 156
0.892901 -0.55156 0.164211 113 116 139
0.889764 -0.550651 0.18653 111 114 137
0.730198 -0.511532 -0.513991 127 124 115
0.797844 -0.579678 -0.221086 201 195 178
0.809386 -0.56961 -0.175559 238 225 192
0.871262 -0.551046 0.145478 118 122 150
0.8916 -0.552102 0.224165 143 146 164
0.910466 -0.57586 0.284218 25 31 42
0.91566 -0.593627 0.298694 66 68 76
0.913991 -0.606787 0.300198 34 39 53
0.607797 -0.148537 -0.829319 216 214 210
0.608962 -0.166837 -0.832546 217 216 211
0.831856 -0.570591 -0.0350919 211 201 196
0.852128 -0.552908 0.0646569 147 144 159
0.872039 -0.550391 0.185236 123 126 147
0.88948 -0.567354 0.264656 76 82 89
0.889159 -0.567116 0.284325 46 52 62
0.562385 0.367532 -0.845491 233 233 229
0.564534 0.327589 -0.852583 231 231 227
0.563163 0.290828 -0.856952 230 230 226
0.564015 0.267163 -0.856526 230 230 226
0.566163 0.22877 -0.858854 229 229 225
0.574186 0.149186 -0.858099 230 228 225
0.583047 0.0699376 -0.852569 226 223 221
0.583399 0.0478408 -0.850633 225 216 216
0.584915 0.0281568 -0.850831 226 221 219
0.585768 0.0079661 -0.84936 224 222 219
0.586193 -0.00923316 -0.84959 223 222 218
0.596365 -0.115815 -0.844911 221 219 217
0.608401 -0.230669 -0.829267 214 212 208
0.612608 -0.292822 -0.827369 212 210 206
0.631103 -0.530063 -0.792855 139 136 128
0.809375 -0.568277 -0.0323464 219 196 169
0.569137 -0.13312 -0.871987 216 215 211
0.652313 -0.506802 -0.697987 145 140 133
0.749376 -0.592282 -0.235371 156 150 133
0.870172 -0.555042 0.245144 178 181 189
1.62754 0.36819 0.191093 224 227 223
1.63129 0.268759 0.20513 222 225 221
1.63129 0.24912 0.204697 223 225 220
1.63137 0.208858 0.204518 223 206 206
1.63109 0.189022 0.204859 222 200 201
1.63108 -0.0707609 0.205354 214 216 211
1.62693 -0.0907805 0.189624 216 217 213
1.6298 -0.15154 0.185804 212 213 208
1.63109 -0.171254 0.18522 210 211 206
1.6316 -0.251178 0.223801 203 207 210
1.63097 -0.450602 0.24618 161 166 172
1.62989 -0.470537 0.246483 143 146 147
1.62937 -0.508507 0.226917 114 115 113
1.61109 0.229057 0.184779 222 222 218
1.62627 -0.050605 0.190625 218 220 215
0.506952 0.0694212 -0.890728 224 225 222
1.62681 -0.0699181 0.190169 216 218 215
1.62336 -0.287663 0.195072 217 212 216
1.6274 -0.309942 0.211079 188 189 193
1.6119 -0.35089 0.22374 211 215 224
1.63177 -0.431286 0.205678 165 165 169
1.63014 -0.49232 0.206557 139 139 138
0.682729 0.367267 -0.724591 132 138 138
1.60883 -0.471525 0.206182 176 177 181
1.61017 -0.531492 0.188773 91 91 87
0.455721 -0.695229 0.278575 220 196 164
1.59132 0.388371 0.165107 207 211 209
1.60323 -0.268825 0.174078 213 215 217
1.60379 -0.507638 0.189322 174 175 177
1.48603 -0.550744 0.0525724 97 95 91
1.32954 -0.54373 -0.0908714 89 91 92
0.970408 -0.411034 -0.414116 215 217 214
1.20811 -0.729887 0.0422072 101 92 83
1.17763 -0.742254 0.0914156 127 102 84
1.13158 -0.544943 -0.168916 184 200 237
1.11113 -0.546996 -0.0144978 172 179 199
1.00791 0.148755 -0.411664 221 222 219
1.00725 0.0287686 -0.410379 216 217 214
0.988539 0.108946 -0.430937 221 223 220
0.98803 0.089026 -0.431129 220 222 219
1.03042 -0.490588 -0.374857 210 215 216
1.04861 -0.489993 -0.233022 215 217 226
1.04893 -0.52982 -0.212317 213 214 224
1.0477 -0.548544 -0.192707 206 209 217
0.969519 0.348798 -0.432963 223 224 222
0.967886 0.289383 -0.45128 223 225 222
0.966889 0.209042 -0.450276 222 223 221
0.96868 0.169307 -0.451043 222 223 221
0.989412 -0.170684 -0.432459 214 215 212
0.990304 -0.189661 -0.433014 214 214 211
1.02974 -0.490481 -0.234859 214 218 222
1.03104 -0.508989 -0.233749 213 215 219
1.04388 -0.546543 -0.208649 206 209 217
0.967616 0.0283527 -0.450198 219 220 218
0.967091 -0.0105824 -0.449776 218 219 217
0.968455 -0.0914739 -0.451419 217 218 217
0.968229 -0.110399 -0.451305 216 218 216
0.968144 -0.130921 -0.451955 216 217 214
1.03134 -0.489382 -0.251728 206 210 213
1.02913 -0.549809 -0.19387 208 211 218
0.948296 0.189487 -0.471653 224 225 223
0.947452 0.16844 -0.471071 222 223 221
0.947235 0.149423 -0.47122 222 223 221
0.948203 0.129016 -0.471411 222 224 221
0.947882 0.0891438 -0.470947 221 222 220
0.947378 0.0287173 -0.470752 220 221 219
0.946733 0.00925222 -0.469672 219 220 218
1.01267 -0.509617 -0.25406 186 190 194
1.01208 -0.531089 -0.232827 181 187 190
1.02996 -0.532206 -0.056111 196 202 223
0.9287 0.228757 -0.491891 224 226 223
0.927596 0.209214 -0.492109 224 225 223
0.92785 0.189511 -0.491887 224 225 223
0.927323 0.0698529 -0.491418 221 222 220
0.950235 -0.190547 -0.47292 214 214 211
0.947598 -0.249584 -0.472283 215 215 211
0.948411 -0.270459 -0.47284 215 215 212
0.992843 -0.51089 -0.318777 149 153 157
0.991087 -0.50997 -0.293039 139 142 146
0.993089 -0.510545 -0.273527 198 202 207
0.993036 -0.529403 -0.25544 219 222 227
1.0104 -0.547994 -0.154663 213 216 230
1.03005 -0.531545 0.0439419 187 189 207
1.05019 -0.55132 0.206593 52 67 131
0.908353 0.388931 -0.510758 220 223 223
0.927414 -0.1108 -0.490946 217 219 217
0.930783 -0.170708 -0.493658 215 215 212
0.971249 -0.531142 -0.356939 108 109 109
0.989389 -0.546507 -0.254287 119 124 139
1.03236 -0.544787 0.10478 84 100 160
0.907315 0.0275915 -0.510605 220 221 219
0.909003 -0.110492 -0.512161 218 219 218
0.90875 -0.129817 -0.511922 217 218 216
0.931939 -0.450059 -0.514558 214 214 210
0.94839 -0.507947 -0.431806 133 135 133
1.01069 -0.526629 0.00581982 206 208 221
1.01114 -0.528924 0.02441 202 205 219
1.01084 -0.530782 0.0450209 190 193 214
0.749557 -0.451622 -0.652701 205 208 206
0.868755 0.328769 -0.53297 226 227 224
0.870289 0.289218 -0.533435 226 227 224
0.88874 0.0887234 -0.531837 222 224 222
0.888999 0.0488756 -0.531699 221 223 222
0.888847 0.0288494 -0.53217 220 222 220
0.888779 -0.031196 -0.532555 220 221 219
0.887781 -0.0714435 -0.532422 218 220 218
0.91154 -0.311901 -0.514751 215 215 214
0.911268 -0.331702 -0.514761 214 215 213
0.91133 -0.389647 -0.514813 214 215 213
0.968751 -0.5725 -0.274537 83 90 114
1.03195 -0.629376 0.219634 121 119 125
1.03267 -0.644826 0.218137 87 89 93
1.03985 -0.721446 0.212757 151 147 145
0.889953 -0.211834 -0.533059 214 214 211
0.889147 -0.230539 -0.532409 215 215 212
0.889822 -0.251928 -0.533616 215 215 213
0.890013 -0.330569 -0.534989 213 215 214
0.913232 -0.507323 -0.474674 138 139 136
0.9528 -0.560505 -0.261665 184 193 200
0.970479 -0.526903 -0.053776 205 207 213
0.990206 -0.528997 0.0860476 180 185 214
0.848003 0.169455 -0.572104 225 226 225
0.870767 -0.17141 -0.555004 214 214 211
0.870536 -0.27032 -0.555784 215 215 214
0.910193 -0.509021 -0.453836 127 128 125
0.970471 -0.527805 0.00565338 179 188 216
1.01031 -0.550629 0.224624 48 61 133
1.01266 -0.631468 0.224685 68 68 74
0.830052 0.310406 -0.592315 229 230 227
0.830082 0.287651 -0.593211 229 230 228
0.829736 0.26802 -0.592141 228 229 226
0.828403 0.15033 -0.591511 225 226 224
0.828478 0.129351 -0.591095 224 226 223
0.847989 -0.091641 -0.571697 217 219 218
0.84958 -0.129579 -0.573019 217 217 216
0.93138 -0.537917 -0.197811 99 105 124
0.968219 -0.528656 -0.0342763 181 183 190
0.970614 -0.52829 0.0454209 171 176 210
0.808825 0.36844 -0.592345 220 222 220
0.808164 0.328589 -0.613393 230 231 228
0.808309 0.309487 -0.611718 229 230 228
0.808971 0.288613 -0.613754 230 231 228
0.809476 0.189255 -0.613247 227 228 226
0.828912 0.0695484 -0.592402 223 225 224
0.829526 0.0495961 -0.592822 222 224 222
0.828157 -0.110679 -0.593558 218 218 217
0.850688 -0.370401 -0.576147 212 212 210
0.851936 -0.410283 -0.575285 211 212 211
0.850607 -0.430018 -0.5762 212 213 211
0.88594 -0.527647 -0.469272 115 114 108
0.950902 -0.530142 -0.094344 203 201 200
0.989383 -0.628487 0.225132 83 85 107
0.788183 0.349106 -0.612769 227 229 228
0.808566 0.149506 -0.613188 227 228 226
0.809747 0.12773 -0.612306 225 227 224
0.810147 0.109435 -0.611179 225 226 224
0.810727 0.0497535 -0.612959 221 223 222
0.830965 -0.270053 -0.594864 215 215 214
0.830621 -0.310351 -0.595529 212 212 211
0.848557 -0.411513 -0.59441 210 210 205
0.849201 -0.470287 -0.594379 213 214 215
0.869273 -0.50658 -0.513483 124 126 121
0.870956 -0.52898 -0.472949 116 116 110
0.870144 -0.628384 -0.494013 115 116 115
0.931411 -0.530508 -0.07349 198 194 189
0.950182 -0.528304 0.0464786 142 152 208
0.988562 -0.624592 0.242585 84 83 90
0.789191 0.20956 -0.631113 228 228 226
0.788955 0.16864 -0.631197 227 228 226
0.790049 0.128445 -0.633255 225 227 225
0.788895 0.0891318 -0.634966 225 227 225
0.790155 -0.0114893 -0.632187 220 221 220
0.808958 -0.230632 -0.612816 215 215 212
0.810628 -0.251456 -0.612939 215 215 214
0.811171 -0.271182 -0.61422 215 215 214
0.811236 -0.291214 -0.613506 214 214 213
0.8298 -0.472218 -0.614319 192 193 190
0.530269 0.148822 -0.853389 222 225 226
0.831324 -0.509316 -0.575398 119 121 118
0.852955 -0.506747 -0.513488 144 147 144
0.849901 -0.535136 -0.492094 113 113 107
0.949443 -0.528629 0.0267073 146 160 211
0.970997 -0.551188 0.225135 68 75 119
0.98459 -0.621528 0.256784 45 47 59
0.718548 0.23135 -0.662134 230 232 235
0.769934 0.0284987 -0.652284 222 224 222
0.79061 -0.171266 -0.634988 214 214 212
0.788558 -0.209899 -0.633552 214 214 212
0.789213 -0.229943 -0.632719 214 214 212
