ply
format ascii 1.0
comment Created by Open3D
element vertex 1274
property double x
property double y
property double z
property uchar red
property uchar green
property uchar blue
end_header
3.59338 -0.970643 3.64663 186 190 200
3.53518 -0.856013 3.82544 214 224 236
3.5349 -0.853026 3.80527 208 218 231
3.55017 -0.872509 3.74434 214 223 237
3.59193 -0.95103 3.64753 186 188 194
3.60925 -0.971039 3.62965 184 188 200
3.53812 -0.856328 3.76807 211 221 234
3.55169 -0.872154 3.72817 216 224 237
3.55964 -0.895125 3.71294 194 199 213
3.59143 -0.932256 3.66624 186 188 192
3.59301 -0.970888 3.6277 185 180 172
3.54184 -0.858662 3.75663 209 219 232
3.54476 -0.856301 3.74871 211 221 234
3.57282 -0.893336 3.70704 209 215 224
3.54829 -0.84661 3.82463 212 222 233
3.56004 -0.879718 3.71387 215 220 233
3.59605 -0.934575 3.65037 186 184 181
3.61145 -0.950407 3.62597 186 187 191
3.67108 -0.928328 3.86608 209 218 228
3.47554 -1.24655 3.75904 185 187 195
3.48731 -1.23058 3.74201 183 187 195
3.48747 -1.20969 3.74423 184 188 196
3.49373 -1.21244 3.72687 184 186 195
3.51216 -1.23076 3.70741 183 185 194
3.49297 -1.17093 3.74604 184 189 199
3.49492 -1.15193 3.74655 184 189 199
3.51078 -1.19184 3.71046 183 186 195
3.51026 -1.15078 3.72495 184 188 199
3.51285 -1.17246 3.70785 183 186 196
3.49655 -1.13195 3.74772 184 189 200
3.5357 -1.17213 3.69069 183 185 195
3.55587 -1.18892 3.67119 180 182 191
3.52794 -1.13062 3.68641 184 185 196
3.52914 -1.10996 3.68453 182 185 196
3.56882 -1.13569 3.65522 182 184 193
3.57314 -1.10708 3.65403 183 185 194
3.55369 -1.07191 3.66765 183 186 199
3.57751 -1.09111 3.65257 183 186 197
3.53904 -1.03821 3.71282 186 191 204
3.50766 -0.989534 3.84423 176 165 152
3.4947 -0.971835 3.82787 174 164 155
3.57239 -1.0713 3.65325 182 185 197
3.58295 -1.06947 3.64871 183 187 198
3.57557 -1.0521 3.65377 183 186 198
3.49361 -0.931642 3.84406 171 169 162
3.49275 -0.931505 3.82493 177 174 168
3.50848 -0.951153 3.86347 172 171 167
3.49597 -0.91572 3.8276 189 188 185
3.59864 -1.02559 3.6349 182 187 200
3.60332 -1.00735 3.63138 182 187 202
3.60648 -0.992503 3.63095 182 187 201
3.52059 -0.875412 3.837 217 225 237
3.59432 -0.972737 3.68938 185 188 199
3.54797 -0.889556 3.76353 218 221 221
3.57379 -0.932656 3.7278 185 185 184
3.59097 -0.949688 3.68493 187 187 190
3.61059 -0.969367 3.64383 186 187 187
3.57137 -0.927791 3.90436 215 224 233
3.5695 -0.911279 3.72564 200 200 200
3.55149 -0.870345 3.76587 212 222 235
3.55197 -0.877799 3.86217 215 216 212
3.53821 -0.860424 3.83989 214 224 237
3.54115 -0.863046 3.79761 214 224 237
3.54629 -0.863711 3.78323 213 223 236
3.56871 -0.892145 3.72532 219 224 231
3.57467 -0.872763 3.72689 213 222 236
3.59185 -0.913241 3.70577 197 197 192
3.5718 -1.19311 3.70819 161 156 146
3.6093 -0.931253 3.66562 185 186 191
3.61024 -0.931035 3.64648 186 187 192
3.56432 -0.864473 3.75928 213 223 236
3.57786 -0.878205 3.71323 216 226 239
3.63235 -0.949422 3.62765 189 187 182
3.61304 -0.912927 3.64772 190 192 194
3.59635 -0.876764 3.69076 215 224 239
3.61018 -0.891863 3.66492 213 218 225
3.6167 -0.896506 3.65206 200 205 213
3.62867 -0.912115 3.64398 194 193 190
3.62709 -0.891834 3.64459 212 218 226
3.63142 -0.879504 3.92602 213 213 205
3.65041 -0.91104 3.62494 202 201 197
3.65037 -0.888927 3.96432 213 214 206
3.47683 -1.26571 3.74952 183 186 195
3.47587 -1.25154 3.74715 183 186 194
3.47857 -1.20764 3.76225 185 189 197
3.49445 -1.1918 3.72739 183 187 196
3.51349 -1.15069 3.70581 183 186 196
3.51168 -1.07137 3.80664 163 158 147
3.5077 -1.07065 3.8226 160 152 143
3.51179 -1.05176 3.80676 159 150 141
3.59478 -1.13284 3.67051 169 166 161
3.50719 -1.03073 3.82286 163 151 141
3.53205 -1.02999 3.76589 172 167 159
3.57503 -1.09052 3.70911 171 167 161
3.53066 -1.01078 3.76612 176 170 167
3.51418 -0.992032 3.80768 165 149 135
3.55368 -1.03037 3.74791 176 173 165
3.59105 -1.07023 3.68532 180 181 186
3.53229 -0.990341 3.78691 173 169 156
3.61222 -1.08972 3.66788 174 171 166
3.57232 -1.03037 3.70672 186 188 199
3.59224 -1.05165 3.68701 184 187 197
3.50822 -0.950819 3.84536 183 183 180
3.53004 -0.950453 3.80483 187 187 183
3.53188 -0.950673 3.78652 185 185 182
3.53165 -0.970227 3.76645 176 174 169
3.55221 -0.990327 3.76674 185 184 175
3.61286 -1.05029 3.68754 181 179 169
3.61481 -1.05145 3.67028 180 181 186
3.50931 -0.929423 3.86346 195 195 190
3.52862 -0.930514 3.82335 199 201 202
3.53051 -0.9323 3.84501 212 218 225
3.5318 -0.930096 3.80557 193 194 191
3.54965 -0.950655 3.78441 187 186 182
3.55192 -0.950307 3.76624 186 187 184
3.59135 -1.01093 3.72508 186 184 175
3.55325 -1.09049 3.74822 169 166 155
3.59114 -0.991011 3.72549 188 187 180
3.59232 -1.01122 3.68953 183 186 198
3.61797 -1.03174 3.67251 181 183 189
3.54947 -0.951892 3.90625 203 207 212
3.54853 -0.930583 3.80367 206 209 211
3.56892 -0.950411 3.76347 189 189 185
3.5717 -0.95023 3.74585 186 187 185
3.61373 -1.01054 3.68862 184 183 179
3.53089 -0.910061 3.86541 218 221 218
3.53005 -0.91038 3.84522 215 218 217
3.53121 -0.911995 3.82571 213 215 212
3.55263 -0.931578 3.76709 186 187 187
3.59107 -0.970524 3.72582 188 188 184
3.61083 -0.990885 3.70555 189 188 181
3.55099 -0.910374 3.86522 215 220 220
3.55052 -0.910508 3.84504 214 220 220
3.55053 -0.910119 3.82523 216 220 220
3.55031 -0.912381 3.80546 215 217 215
3.57009 -0.929993 3.76471 198 200 200
3.6337 -1.01118 3.66897 185 183 176
3.55341 -0.93161 3.90068 217 222 227
3.55068 -0.908714 3.88498 218 221 216
3.56909 -0.929959 3.78369 210 213 217
3.5917 -0.950803 3.72678 188 189 188
3.59314 -0.97097 3.70702 187 188 194
3.61372 -0.990851 3.68911 186 185 183
3.5705 -0.912373 3.78556 216 220 218
3.6111 -0.970769 3.70602 190 190 185
3.57025 -0.909309 3.82477 217 221 220
3.5702 -0.910141 3.80513 217 221 221
3.60746 -0.970903 3.72234 190 189 181
3.57087 -0.911488 3.88522 215 221 220
3.58976 -0.92886 3.76444 214 218 224
3.60676 -0.949606 3.7227 195 195 191
3.61161 -0.951198 3.70683 189 190 189
3.63455 -0.991172 3.66919 186 184 176
3.59037 -0.910344 3.78514 218 222 221
3.59064 -0.912211 3.76524 219 222 220
3.65019 -0.990909 3.66464 191 191 184
3.57049 -0.891434 3.88545 216 218 210
3.57173 -0.891863 3.84605 218 221 216
3.57078 -0.892673 3.82564 220 223 218
3.58973 -0.908723 3.80486 217 222 221
3.59139 -0.912606 3.74663 214 216 212
3.57266 -0.892284 3.90491 216 218 209
3.65079 -0.970855 3.66557 190 190 184
3.58996 -0.890844 3.88563 215 218 211
3.59109 -0.890564 3.84502 217 220 214
3.61066 -0.912052 3.74536 220 222 221
3.61252 -0.931132 3.70706 197 197 193
3.64703 -0.970221 3.68161 195 194 187
3.61048 -0.907602 3.78493 218 222 220
3.62882 -0.929013 3.72399 219 224 230
3.64723 -0.948826 3.68293 196 198 198
3.61076 -0.891011 3.80535 218 221 218
3.59495 -0.87959 3.88622 213 217 214
3.59352 -0.879953 3.8688 214 217 213
3.61054 -0.890778 3.82568 217 220 214
3.61107 -0.892025 3.78592 220 223 219
3.63083 -0.910004 3.74527 219 223 222
3.67008 -0.970902 3.64464 192 191 183
3.61097 -0.875155 3.86562 213 218 221
3.62959 -0.908091 3.76479 219 223 221
3.64891 -0.930762 3.70415 219 224 229
3.61069 -0.8749 3.88376 213 218 217
3.63037 -0.890946 3.78536 218 222 219
3.63114 -0.892902 3.76593 221 224 220
3.63131 -0.913073 3.70623 217 219 216
3.66695 -0.950053 3.66313 199 201 198
3.67036 -0.95036 3.64591 192 192 184
3.61094 -0.889951 3.9251 215 216 208
3.63056 -0.889873 3.8055 217 220 215
3.65055 -0.909855 3.72503 219 224 223
3.6698 -0.929725 3.66449 208 210 208
3.61628 -0.878278 3.92074 214 215 211
3.61794 -0.860617 3.89001 211 220 230
3.62992 -0.873566 3.84601 213 218 218
3.65183 -0.893487 3.74667 220 224 221
3.63331 -0.851925 3.86703 210 220 231
3.65055 -0.88982 3.78582 218 221 215
3.67047 -0.909845 3.70499 219 223 222
3.63583 -0.858112 3.84791 210 220 231
3.6508 -0.873518 3.80596 212 219 224
3.65443 -0.876809 3.78825 211 221 232
3.68732 -0.927256 3.66245 221 224 225
3.65006 -0.874676 3.82362 214 219 217
3.64873 -0.848545 3.84379 210 220 231
3.65338 -0.855136 3.82813 210 220 232
3.67038 -0.891159 3.76459 218 221 215
3.68979 -0.909846 3.685 218 223 222
3.69107 -0.912288 3.6658 220 224 222
3.67111 -0.894828 3.70646 223 226 222
3.68986 -0.90919 3.70476 218 222 220
3.6688 -0.872933 3.80374 213 219 218
3.69021 -0.892384 3.72632 218 222 219
3.69134 -0.894734 3.70604 220 224 222
3.69016 -0.892226 3.74565 219 221 214
3.70978 -0.909329 3.66472 219 223 221
3.68775 -0.872682 3.78616 213 218 220
3.71067 -0.894615 3.68574 222 225 220
3.71104 -0.895594 3.66645 224 226 223
3.75128 -0.912503 3.90526 210 212 202
3.9512 -0.908948 3.82567 205 204 195
3.75521 -1.01223 3.53197 158 150 137
3.49762 -1.23168 3.71017 182 184 192
3.51182 -1.20382 3.69006 182 183 192
3.51439 -1.18696 3.68911 182 184 193
3.50905 -1.15112 3.68324 182 184 193
3.52482 -1.16463 3.67456 181 183 191
3.52889 -1.15101 3.67239 181 183 193
3.51533 -1.12818 3.70528 183 186 197
3.5077 -1.13046 3.68455 181 184 195
3.53281 -1.13145 3.67129 183 184 193
3.51009 -1.09046 3.70479 182 186 197
3.53265 -1.09156 3.68563 181 185 196
3.53906 -1.09901 3.67338 183 185 194
3.537 -1.0742 3.69118 182 186 198
3.50704 -1.05096 3.823 154 140 131
3.55932 -1.07846 3.65398 180 184 195
3.55824 -1.05404 3.67061 183 187 199
3.51042 -1.01033 3.86445 170 166 159
3.52967 -0.99106 3.80404 179 175 160
3.5273 -0.98944 3.82302 181 175 156
3.52766 -0.989509 3.90315 186 188 192
3.53038 -0.98752 3.88725 193 198 204
3.52476 -0.969 3.84394 187 184 181
3.52994 -0.948591 3.84498 200 203 206
3.59057 -0.989418 3.68688 184 188 200
3.53266 -0.950098 3.90034 201 202 200
3.5688 -0.970781 3.76386 188 186 178
3.55159 -0.932079 3.82566 216 221 228
3.60877 -0.988094 3.6652 183 184 191
3.57431 -0.968044 3.93878 208 216 226
3.61201 -0.970779 3.68838 186 187 190
3.56937 -0.931929 3.86578 208 216 225
3.57076 -0.928048 3.84536 210 218 227
3.59231 -0.953014 3.70956 185 184 182
3.56985 -0.932135 3.88602 212 221 231
3.59032 -0.929475 3.78496 217 223 231
3.61443 -0.952824 3.68862 187 187 184
3.59092 -0.927353 3.92487 214 220 224
3.59072 -0.911995 3.84586 215 221 221
3.63346 -0.952654 3.66844 187 187 183
3.59092 -0.911276 3.90529 214 219 216
3.61038 -0.928591 3.78585 212 219 229
3.61059 -0.927698 3.76499 220 226 237
3.61058 -0.925981 3.82467 215 223 235
3.61077 -0.9267 3.8054 211 219 230
3.59192 -0.910195 3.9251 214 216 209
3.63042 -0.927055 3.78492 212 219 230
3.63046 -0.928284 3.76619 211 218 230
3.63034 -0.92885 3.74499 220 227 239
3.61109 -0.911786 3.90601 211 216 213
3.61002 -0.908694 3.80535 218 222 218
3.63062 -0.909363 3.84511 214 219 215
3.63087 -0.909028 3.80512 216 221 218
3.61026 -0.891532 3.90607 215 217 209
3.61139 -0.891687 3.88564 215 218 209
3.63108 -0.91078 3.8864 212 216 209
3.65081 -0.909923 3.80504 215 220 218
3.63067 -0.889674 3.92589 215 217 210
3.66933 -0.933777 3.70677 218 224 233
3.63095 -0.89005 3.86525 216 218 210
3.63147 -0.88829 3.94573 214 215 205
3.6506 -0.890341 3.86609 215 218 212
3.67037 -0.909473 3.78568 215 220 218
3.69004 -0.948338 3.6842 210 208 209
3.65101 -0.889665 3.94589 213 216 209
3.65087 -0.888879 3.92528 214 217 212
3.65052 -0.888948 3.90519 214 217 211
3.65075 -0.890044 3.8467 216 219 211
3.69082 -0.931938 3.72563 209 217 228
3.68996 -0.933383 3.70644 211 217 225
3.69115 -0.931156 3.74485 214 222 233
3.67174 -0.891271 3.82652 216 219 212
3.6507 -0.87953 3.92679 213 213 205
3.67104 -0.889619 3.905 214 217 211
3.69082 -0.909694 3.78563 213 219 218
3.70806 -0.930861 3.68619 213 216 217
3.6909 -0.908988 3.80521 212 217 212
3.7108 -0.929245 3.70628 209 216 224
3.691 -0.890548 3.84589 215 219 213
3.7108 -0.909905 3.74512 214 220 218
3.67163 -0.878298 3.88697 213 214 206
3.69025 -0.889868 3.88583 214 217 211
3.69143 -0.890539 3.86581 215 218 212
3.71112 -0.908902 3.76528 214 219 216
3.69195 -0.875048 3.92439 210 214 213
3.7107 -0.892089 3.78546 216 220 214
3.71084 -0.890788 3.82531 215 219 214
3.71105 -0.890614 3.80579 216 219 213
3.7316 -0.910477 3.70577 215 220 218
3.71111 -0.876328 3.86528 212 216 214
3.71092 -0.891151 3.84543 215 218 214
3.7113 -0.890902 3.76589 217 220 212
3.69754 -0.860025 3.96503 208 215 224
3.731 -0.891864 3.76562 216 220 214
3.73113 -0.910244 3.76598 212 218 213
3.71211 -0.854522 3.98305 206 213 222
3.71186 -0.854364 3.96674 206 214 224
3.71212 -0.854589 3.94663 207 215 226
3.7106 -0.874191 3.9255 210 213 211
3.73076 -0.890432 3.80571 215 219 215
3.73123 -0.892201 3.7458 217 220 213
3.71592 -0.857704 3.9106 209 217 227
3.73348 -0.877513 3.827 211 216 222
3.73062 -0.890466 3.82516 215 218 214
3.7296 -0.872864 3.88442 210 215 215
3.731 -0.89326 3.72562 219 221 213
3.73088 -0.850074 3.98456 206 213 223
3.73049 -0.857535 3.9042 208 216 228
3.73112 -0.879177 3.80928 214 216 210
3.75115 -0.893886 3.72545 217 220 213
3.75022 -0.894295 3.70576 219 221 213
3.77009 -0.892371 4.06465 203 205 201
3.73536 -0.852951 4.0049 206 214 227
3.73085 -0.855092 3.92496 206 215 227
3.75045 -0.891047 3.78587 215 219 214
3.47941 -1.22619 3.73379 183 185 194
3.47902 -1.21053 3.73466 183 185 194
3.48931 -1.14818 3.70058 181 185 194
3.49207 -1.1505 3.68701 181 184 193
3.47453 -1.12721 3.74351 183 187 199
3.4868 -1.12621 3.72341 183 187 197
3.49761 -1.13429 3.6921 182 185 196
3.48017 -1.11016 3.7624 186 189 200
3.49565 -1.11122 3.70761 182 186 197
3.5104 -1.11218 3.68824 181 185 196
3.49226 -1.09163 3.72579 183 187 199
3.49728 -1.0952 3.7115 183 187 198
3.51221 -1.11054 3.67099 182 184 196
3.50951 -1.09075 3.68614 181 186 197
3.49305 -1.13083 3.82707 167 163 151
3.48988 -1.07073 3.74505 184 189 200
3.51014 -1.07201 3.70686 183 187 200
3.51414 -1.06926 3.6679 182 185 197
3.49603 -1.05065 3.72627 184 189 202
3.50688 -1.04965 3.70564 183 189 201
3.52334 -1.06765 3.66132 181 185 196
3.51178 -1.04884 3.68362 183 187 199
3.52777 -1.06701 3.65287 180 184 195
3.52605 -1.04916 3.66567 182 185 198
3.50939 -1.02905 3.70434 184 188 201
3.52252 -1.04354 3.67787 183 187 200
3.50979 -1.01034 3.72458 168 173 183
3.49503 -1.01167 3.82728 162 149 138
3.52762 -1.00823 3.70308 186 190 204
3.53224 -1.01182 3.68686 185 189 203
3.54551 -1.02758 3.64992 181 185 198
3.50956 -0.986109 3.70627 172 176 187
3.55356 -1.01069 3.64892 182 186 199
3.50673 -1.03071 3.86557 160 154 146
3.49553 -0.989898 3.8626 167 165 156
3.54988 -0.990389 3.68553 181 181 184
3.55387 -0.991957 3.6675 184 186 194
3.533 -0.973139 3.70713 186 191 205
3.55744 -0.995881 3.65187 183 187 200
3.5706 -0.990944 3.646 182 181 181
3.51212 -0.96794 3.88338 166 165 161
3.57413 -0.972619 3.64813 184 185 191
3.57886 -0.960126 3.65211 185 185 187
3.57307 -0.951247 3.72792 185 187 192
3.59158 -0.931139 3.70687 186 185 184
3.57101 -0.953387 3.82706 219 227 243
3.59178 -0.951068 3.94163 209 217 226
3.59042 -0.950778 3.86331 212 224 239
3.58975 -0.948777 3.84583 211 221 235
3.59183 -0.942732 3.81183 216 226 239
3.59155 -0.928043 3.86608 213 221 229
3.61205 -0.931273 3.68724 186 187 187
3.5903 -0.928627 3.90551 214 222 231
3.60974 -0.945669 3.82576 208 218 231
3.60966 -0.94375 3.80631 214 224 237
3.60953 -0.942844 3.84438 214 224 237
3.61167 -0.925861 3.88543 209 218 227
3.61273 -0.930023 3.94395 211 218 223
3.60998 -0.927553 3.90511 211 219 225
3.63211 -0.93092 3.68671 197 198 193
3.63093 -0.926248 3.86536 211 220 230
3.63055 -0.925124 3.88502 210 219 228
3.65044 -0.944332 3.80457 213 223 238
3.65008 -0.947346 3.78642 208 217 233
3.65075 -0.946724 3.76708 211 220 235
3.63116 -0.948683 3.74593 206 203 201
3.63043 -0.910744 3.90552 211 216 211
3.63073 -0.910798 3.94561 211 214 206
3.63119 -0.910359 3.92536 211 216 212
3.65092 -0.92808 3.84547 211 220 230
3.65119 -0.93071 3.82538 212 221 233
3.65128 -0.949513 3.72643 207 204 203
3.65037 -0.926409 3.86539 210 218 228
3.6499 -0.928325 3.80608 214 222 233
3.67065 -0.94527 3.78393 214 224 239
3.67123 -0.948075 3.76606 207 217 233
3.67234 -0.947072 3.74607 208 218 234
3.66953 -0.945499 3.72467 215 222 233
3.65106 -0.910746 3.88541 211 216 210
3.65114 -0.910365 3.86502 212 217 211
3.67132 -0.929304 3.80586 212 220 231
3.66568 -0.942371 3.79719 214 223 238
3.67192 -0.946528 3.70442 213 216 224
3.66974 -0.928997 3.84474 210 219 228
3.67076 -0.92755 3.78602 213 221 232
3.6509 -0.91128 3.94544 211 214 208
3.68735 -0.943969 3.76528 214 224 239
3.6919 -0.94576 3.74559 209 219 235
3.69267 -0.947226 3.72564 205 214 232
3.68921 -0.945448 3.70595 215 221 232
3.67122 -0.909456 3.86641 211 216 211
3.69041 -0.930774 3.78599 211 220 231
3.67043 -0.887547 3.96508 212 214 206
3.70858 -0.943623 3.72472 209 219 235
3.70965 -0.931065 3.76544 211 220 231
3.71226 -0.933072 3.74608 212 221 233
3.71036 -0.929274 3.80518 210 217 225
3.69052 -0.888807 3.92451 213 214 207
3.69102 -0.888998 3.90604 213 216 210
3.71027 -0.909812 3.82536 211 216 212
3.71134 -0.912012 3.80516 211 217 215
3.69077 -0.887988 3.94511 213 213 203
3.71055 -0.910723 3.84603 211 215 207
3.73078 -0.930492 3.74578 210 218 229
3.71092 -0.889688 3.86564 214 217 211
3.72968 -0.930191 3.76548 209 218 227
3.71068 -0.889055 3.88521 214 216 208
3.73036 -0.910158 3.78551 212 217 214
3.72988 -0.91077 3.80509 211 216 213
3.70881 -0.874729 3.96548 209 210 206
3.73048 -0.890421 3.84421 215 218 212
3.74871 -0.926036 3.72618 212 216 215
3.75072 -0.909434 3.74576 212 217 214
3.72979 -0.872119 3.90586 210 213 210
3.75015 -0.872424 3.86474 210 215 216
3.75267 -0.877483 3.82782 210 216 218
3.77065 -0.9098 3.7256 213 217 209
3.74996 -0.874368 3.88421 210 213 207
3.74851 -0.846546 3.92472 205 213 224
3.75224 -0.851683 3.90582 207 214 226
3.75317 -0.857892 3.88687 207 215 227
3.77017 -0.891034 3.7857 216 218 211
3.77163 -0.89372 3.72612 218 220 212
3.74737 -0.834217 3.98456 205 211 220
3.75324 -0.853355 3.96586 206 217 230
3.75315 -0.852316 3.94773 206 216 229
3.75961 -0.859543 3.87157 208 216 227
3.76905 -0.87309 3.84653 210 214 212
3.75688 -0.835501 4.02079 203 212 222
3.76807 -0.85756 3.86577 207 214 227
3.78971 -0.893082 3.74566 217 219 211
3.76646 -0.847822 3.89878 206 211 224
3.77223 -0.859775 3.85246 208 213 226
3.78058 -0.880185 3.75081 206 214 228
3.47712 -1.17061 3.69357 182 184 193
3.4757 -1.15226 3.70729 182 186 194
3.47148 -1.14683 3.72112 184 187 195
3.49534 -1.16434 3.6731 181 183 192
3.47828 -1.14019 3.71248 183 185 194
3.49861 -1.15571 3.672 181 183 192
3.47761 -1.0938 3.74758 184 188 200
3.48059 -1.07522 3.7694 185 189 202
3.53741 -0.972754 3.91601 185 186 189
3.55223 -0.911599 3.76714 211 211 207
3.63139 -0.927898 3.92601 210 217 221
3.63148 -0.930598 3.96428 209 214 217
3.64923 -0.944141 3.98498 199 204 209
3.6699 -0.926434 3.90611 209 217 224
3.66979 -0.929791 3.96617 210 218 224
3.67143 -0.928389 3.92626 210 217 223
3.69111 -0.911658 3.98549 209 211 205
3.69045 -0.911801 3.9657 210 214 210
3.69157 -0.926869 3.96527 209 216 223
3.71098 -0.927677 3.86551 210 217 224
3.71162 -0.92734 3.8456 209 217 226
3.71016 -0.93039 4.00554 210 218 228
3.711 -0.911959 3.9655 209 213 209
3.7102 -0.926097 3.94613 209 217 225
3.71125 -0.928045 3.92601 208 216 223
3.7093 -0.928665 3.88551 210 217 221
3.72129 -0.941294 3.72636 213 223 240
3.71092 -0.911982 4.00588 209 214 212
3.71138 -0.911506 3.98564 209 212 208
3.71027 -0.912675 3.94581 210 214 208
3.73049 -0.928646 3.82571 209 216 223
3.7314 -0.930785 3.80623 209 216 224
3.72874 -0.928233 3.9059 208 217 226
3.72952 -0.925718 3.8853 209 216 222
3.76755 -1.03075 3.5278 137 128 113
3.73071 -0.911865 3.96459 209 212 209
3.7317 -0.925509 3.94534 207 216 224
3.75242 -0.930755 3.78509 208 216 222
3.7512 -0.931452 3.76612 208 216 222
3.75128 -0.931104 3.74711 209 216 217
3.73225 -0.912787 4.04343 206 208 201
3.75007 -0.926787 3.92597 207 215 224
3.75106 -0.926243 3.86477 209 216 220
3.75173 -0.912097 4.04576 207 212 213
3.75179 -0.913563 3.98563 208 213 212
3.77079 -0.927378 3.84603 209 215 216
3.77218 -0.9297 3.82598 209 216 218
3.77305 -0.931179 3.78573 208 215 220
3.77178 -0.949896 3.76438 215 219 217
3.77488 -0.955536 3.74634 218 220 215
3.77099 -0.914801 3.96496 206 210 205
3.77078 -0.929393 3.94675 207 216 226
3.77089 -0.912168 4.06512 202 207 206
3.77028 -0.911964 4.04498 204 208 208
3.7704 -0.913552 4.02589 205 209 208
3.76985 -0.913809 4.00588 206 211 208
3.77039 -0.913513 3.98556 206 211 209
3.77003 -0.928348 3.96566 206 216 227
3.79091 -0.927211 3.90448 207 214 218
3.7913 -0.928873 3.8447 207 214 217
3.79233 -0.928934 3.82462 208 215 217
3.79034 -0.928476 3.80592 210 215 215
3.79114 -0.930145 3.78684 210 215 214
3.79074 -0.913298 4.0252 204 209 209
3.79005 -0.91394 4.00525 203 208 208
3.79174 -0.915449 3.98554 205 209 209
3.79104 -0.928832 3.9474 205 212 219
3.79446 -0.940901 3.79844 207 217 228
3.79419 -0.941091 3.78619 207 217 229
3.79102 -0.911258 4.06676 203 208 209
3.79075 -0.912786 4.0452 203 208 208
3.80961 -0.943436 3.80619 206 216 226
3.80852 -0.943295 3.78729 206 216 229
3.81055 -0.927631 3.96525 206 213 219
3.81065 -0.927525 3.90552 207 214 218
3.8105 -0.926724 3.88509 207 211 212
3.81098 -0.929344 3.84592 207 213 215
3.81064 -0.929019 3.82634 207 214 216
3.81089 -0.91211 4.02654 203 208 207
3.81036 -0.912051 4.0054 204 209 208
3.8309 -0.928067 3.94629 206 213 218
3.83102 -0.930589 3.84712 206 212 213
3.82509 -0.946141 3.79387 205 216 229
3.83064 -0.914203 4.00549 203 207 205
3.83085 -0.926968 3.98433 204 211 217
3.83097 -0.929182 3.96563 204 212 221
3.83103 -0.912544 4.02537 203 207 204
3.83073 -0.942732 3.83827 205 208 208
3.85081 -0.929415 3.96539 203 211 219
3.85085 -0.928744 3.90565 206 212 215
3.85203 -0.928362 3.88514 205 211 212
3.85003 -0.927214 3.86513 206 209 209
3.85078 -0.943942 3.82477 205 210 217
3.85161 -0.950717 3.80554 206 209 213
3.8513 -0.912887 4.02636 202 208 209
3.85046 -0.927624 4.00511 203 211 219
3.87009 -0.92859 3.94508 204 210 215
3.87114 -0.92963 3.90509 206 210 215
3.86381 -0.941791 3.86387 206 213 226
3.86838 -0.944973 3.80911 205 207 209
3.86974 -0.913911 4.00656 202 206 203
3.8702 -0.926645 3.98568 202 208 216
3.86992 -0.92823 3.96647 203 209 215
3.86818 -0.942552 3.8254 205 210 220
3.8757 -0.940896 3.87849 206 211 224
3.6157 -0.954502 3.60995 187 184 175
3.47048 -1.07178 3.68629 183 187 197
3.46678 -1.06721 3.70628 183 187 197
3.46244 -1.0651 3.72357 185 186 198
3.48409 -1.06376 3.67811 182 186 198
3.47675 -1.05443 3.70537 183 187 198
3.4792 -1.05849 3.69269 182 187 198
3.4924 -1.05194 3.68686 182 186 198
3.48702 -1.04601 3.70327 183 187 199
3.51139 -1.05327 3.66809 181 185 198
3.47677 -1.03258 3.7462 185 189 200
3.47911 -1.03874 3.72948 183 188 199
3.47879 -1.0507 3.77891 178 178 187
3.4764 -1.027 3.76308 186 189 200
3.48009 -1.01901 3.76518 188 189 201
3.4975 -1.0175 3.73036 186 190 200
3.48793 -0.986393 3.74564 176 178 186
3.53112 -0.908727 3.88411 214 216 211
3.67382 -0.954449 3.98683 215 225 239
3.67222 -0.930463 4.00394 207 210 210
3.69086 -0.932461 3.98628 211 220 230
3.70652 -0.964838 4.04219 213 222 234
3.70918 -0.926377 3.98575 209 217 225
3.71297 -0.929792 4.04158 209 213 207
3.72993 -0.929176 4.02558 209 218 227
3.73003 -0.929679 4.00594 209 218 228
3.75031 -0.927555 4.04492 207 215 223
3.7511 -0.931801 4.02679 208 217 226
3.75081 -0.927201 4.06431 204 210 215
3.75057 -0.927415 4.00513 207 216 222
3.75111 -0.928312 3.98535 207 215 222
3.7504 -0.929443 3.96537 207 216 224
3.7699 -0.928229 4.04573 207 216 224
3.76979 -0.929083 4.02662 206 215 223
3.77314 -0.928658 3.9863 205 212 220
3.789 -0.926943 3.98372 204 211 217
3.81127 -0.926281 3.7857 211 213 206
3.85088 -0.927568 3.84572 206 209 207
3.85057 -0.927641 3.82652 206 211 210
3.85154 -0.925758 3.80639 208 211 203
3.87051 -0.926058 3.84525 206 208 206
3.86953 -0.913439 3.98623 203 206 199
3.8899 -0.913647 3.98522 202 204 193
3.88945 -0.926117 3.96687 203 206 203
3.88822 -0.925678 3.94586 204 207 200
3.47702 -1.25417 3.78151 150 145 136
3.46563 -1.00758 3.72616 184 189 202
3.4638 -1.01112 3.74077 183 186 194
3.47265 -0.993893 3.72672 185 189 202
3.47266 -0.990293 3.74346 185 189 199
3.49043 -0.987646 3.70596 185 189 199
3.48737 -0.984559 3.72378 181 184 194
3.50222 -0.984177 3.67386 183 187 200
3.50781 -0.98286 3.68546 184 188 201
3.49083 -0.973429 3.74559 175 172 180
3.49187 -0.971315 3.72602 178 180 190
3.51724 -0.979112 3.68836 186 190 205
3.51696 -0.978896 3.70777 186 190 202
3.53066 -0.974033 3.69034 186 190 205
3.54945 -0.943762 3.88708 219 227 238
3.59162 -0.947447 3.92555 213 225 238
3.59002 -0.951061 3.90601 213 225 239
3.6302 -0.965695 3.98361 159 159 157
3.61333 -0.949496 3.96123 199 205 209
3.62988 -0.95253 3.98132 196 196 191
3.63109 -0.948971 3.96459 212 218 224
3.6912 -0.971823 4.02721 211 221 233
3.69294 -0.929541 4.02339 203 207 205
3.73222 -0.949321 4.06508 193 196 198
3.75124 -0.913152 3.82527 210 215 210
3.75151 -0.913014 3.86542 210 214 206
3.75238 -0.912983 4.06416 203 205 199
3.77046 -0.913464 3.86556 210 214 209
3.77072 -0.913551 3.84619 210 215 209
3.77049 -0.911453 3.80582 211 215 206
3.77161 -0.913944 3.9255 207 210 204
3.77106 -0.91301 3.90563 208 211 203
3.79093 -0.914416 3.90585 207 210 204
3.79087 -0.913177 3.82602 210 215 207
3.81046 -0.913366 3.94527 203 206 202
3.81105 -0.913251 3.92475 204 207 202
3.8108 -0.912812 3.88579 207 211 205
3.81063 -0.913109 3.84619 209 213 206
3.81069 -0.912336 3.86555 208 212 205
3.82905 -0.913078 3.94548 204 207 201
3.83054 -0.913436 3.92564 204 208 203
3.8307 -0.911963 3.90538 205 207 202
3.83086 -0.913762 3.886 205 208 204
3.85009 -0.913089 3.9659 203 205 200
3.85091 -0.913314 3.94508 204 207 202
3.85092 -0.913156 3.92516 204 207 202
3.84972 -0.913573 3.86606 206 208 201
3.85048 -0.913561 3.90564 204 207 202
3.85073 -0.912613 3.88541 205 208 203
3.87016 -0.91331 3.96465 203 205 199
3.86932 -0.913311 3.92568 204 206 197
3.8702 -0.913732 3.90557 204 206 198
3.47754 -0.972341 3.74644 181 186 196
3.4778 -0.972798 3.76493 189 192 200
3.49543 -0.95721 3.73157 174 160 173
3.5768 -0.951277 3.93887 209 215 220
3.61459 -0.930988 3.95968 202 204 200
3.65217 -0.912076 3.98361 210 212 204
3.69263 -0.949214 3.84855 213 219 225
3.67094 -0.912724 3.96688 210 214 209
3.69275 -0.948318 3.86455 215 219 217
3.5365 -1.01014 3.88541 202 211 225
3.67136 -0.912033 3.98509 210 214 210
3.71375 -0.94966 3.88764 206 212 217
3.73087 -0.946721 3.88595 206 213 219
3.76776 -0.945782 3.90695 204 216 232
3.77149 -0.942719 3.92519 203 215 230
3.78195 -0.946067 3.91518 204 214 229
3.79132 -0.941823 3.93951 204 214 229
3.77134 -0.911764 4.08388 203 205 198
3.7892 -0.925478 4.005 204 213 219
3.7913 -0.932011 4.02567 206 215 222
3.81232 -0.930377 4.00736 204 213 220
3.81027 -0.929417 4.02454 205 214 223
3.8527 -0.941958 3.9588 201 211 226
3.8475 -0.944199 3.95389 202 212 227
3.89096 -0.946589 3.98521 200 201 199
3.57078 -0.96817 3.80489 194 200 215
3.57773 -0.964415 3.81932 221 228 244
3.55434 -0.972069 3.92001 200 205 212
3.5909 -0.96963 3.82565 220 228 243
3.56944 -0.970848 3.9256 218 228 241
3.57357 -0.945128 3.86405 207 219 235
3.60783 -0.976929 3.83075 218 227 243
3.61059 -0.972722 3.84569 211 220 233
3.59149 -0.946853 3.88376 212 224 239
3.60475 -0.958784 3.86933 216 226 243
3.61371 -0.965568 3.86439 216 227 242
3.62866 -0.981792 3.84567 208 219 236
3.6108 -0.953728 3.88654 215 226 241
3.62943 -0.972931 3.8659 215 226 243
3.62712 -0.978054 3.8514 214 223 239
3.61098 -0.951941 3.90686 206 218 232
3.63139 -0.968936 3.88509 215 225 242
3.65187 -0.990285 3.86565 213 219 227
3.62937 -0.959038 3.89088 213 224 241
3.64907 -0.977838 3.87227 217 224 235
3.63006 -0.952477 3.90601 212 222 238
3.6528 -0.974005 3.88694 215 220 224
3.63133 -0.952307 3.92759 212 223 237
3.66803 -0.986652 3.86669 214 218 221
3.66962 -0.970837 3.90732 211 220 231
3.65091 -0.949107 3.94489 213 221 231
3.66975 -0.950806 3.94579 211 220 233
3.70957 -0.986386 3.90918 211 221 236
3.67409 -0.947461 3.96223 213 223 238
3.70997 -0.97045 3.92558 210 221 236
3.72507 -0.988065 3.91323 210 220 235
3.71103 -0.954987 3.94882 210 222 236
3.69003 -0.943738 3.98312 213 224 238
3.7111 -0.951655 3.96648 211 222 236
3.73116 -0.973669 3.94705 209 221 235
3.72907 -0.973562 3.92986 209 220 235
3.73022 -0.950621 3.98583 209 219 234
3.74314 -0.949793 3.96534 208 218 233
3.75084 -0.956261 3.98621 208 219 234
3.75677 -0.961124 3.97941 205 218 232
3.77254 -0.963012 3.98218 206 217 232
3.76958 -0.949666 4.00481 206 216 229
3.78863 -0.970121 3.96812 206 218 232
3.77142 -0.943641 4.02185 207 218 231
3.79103 -0.964959 3.98481 205 216 231
3.79082 -0.954454 3.98658 208 218 233
3.81027 -0.950907 4.00408 206 217 230
3.8315 -0.969397 3.98936 204 213 223
3.81117 -0.929237 4.04542 204 214 222
3.83336 -0.96883 4.00307 202 204 206
3.84984 -0.968886 3.99058 201 204 207
3.83026 -0.929542 4.04482 203 211 218
3.85182 -0.955476 4.00831 201 207 216
3.76692 -1.21049 3.54321 124 112 91
3.85298 -0.931121 4.04722 201 206 212
3.8708 -0.950039 4.00798 201 205 210
3.86811 -0.948062 4.02099 204 205 203
3.5257 -1.15058 3.84301 184 186 191
3.52635 -1.12681 3.86291 180 180 183
3.53158 -1.11049 3.82566 150 147 140
3.5338 -1.11129 3.84879 175 165 174
3.54995 -1.09107 3.84702 170 158 165
3.55024 -1.03174 3.88494 193 200 216
3.57015 -1.03131 3.86327 194 201 217
3.53632 -1.01496 3.90279 188 191 191
3.5527 -0.990295 3.90547 211 221 236
3.56891 -1.00479 3.87873 222 231 246
3.55009 -0.989197 3.88193 218 228 243
3.59055 -1.01022 3.86402 220 228 244
3.56967 -0.985072 3.89882 212 223 238
3.57095 -0.975835 3.9079 205 217 231
3.59189 -0.991131 3.88554 211 223 239
3.60765 -1.01164 3.84959 221 230 246
3.60938 -1.00685 3.8836 210 211 213
3.59111 -0.972096 3.90626 212 225 239
3.61212 -0.991608 3.88531 213 223 236
3.61032 -0.986953 3.90357 211 213 219
3.63131 -0.991235 3.88465 215 223 236
3.63178 -0.988183 3.90326 215 222 235
3.6495 -1.00254 3.87783 216 227 244
3.65068 -0.985511 3.90346 215 226 241
3.63322 -0.952065 3.94587 213 220 229
3.67249 -0.986427 3.90279 214 225 240
3.73263 -0.957317 3.93243 210 221 235
3.74935 -0.945683 3.94497 209 219 234
3.74776 -0.945671 4.06974 202 207 214
3.76266 -0.940948 3.94487 206 219 233
3.81091 -0.891294 4.00546 203 204 196
3.83162 -0.889662 4.02472 202 204 200
3.83178 -0.874931 3.98609 199 198 187
3.84993 -0.876416 4.00574 182 179 170
3.93177 -0.906959 3.78504 209 211 199
3.84981 -0.928689 3.58784 195 193 185
3.51112 -1.16759 3.84076 182 184 189
3.51802 -1.12945 3.86534 159 156 151
3.54573 -1.12814 3.84258 159 149 142
3.57564 -1.01482 3.85301 213 222 237
3.55129 -0.971892 3.88815 216 226 241
3.57111 -0.992297 3.86824 221 230 245
3.59114 -0.993195 3.86731 216 226 241
3.59064 -0.972285 3.88657 217 230 244
3.61098 -0.994815 3.86858 212 225 240
3.67114 -0.969242 3.94395 216 226 241
3.69274 -0.984004 3.92049 214 224 239
3.74901 -0.928806 3.58459 214 216 211
3.73004 -1.17103 3.56519 179 175 163
3.59074 -1.0316 3.90741 212 220 233
3.59015 -1.04239 3.89723 221 229 244
3.60053 -1.04023 3.8951 221 230 245
3.60301 -1.04164 3.89119 222 231 246
3.60759 -1.03943 3.89412 223 232 247
3.59335 -1.01315 3.90702 208 209 211
3.61107 -1.01394 3.91052 218 228 243
3.59242 -0.993399 3.94582 214 224 236
3.60951 -1.00541 3.91961 220 230 246
3.5973 -0.994532 3.92678 216 220 227
3.62955 -1.02749 3.90983 217 230 246
3.62935 -0.989592 3.92181 216 226 242
3.61476 -0.97336 3.94568 215 220 225
3.64177 -1.00829 3.91134 217 228 244
3.62772 -0.965601 3.94308 214 220 226
3.65372 -0.99285 3.92555 217 227 242
3.64277 -0.962621 3.93706 215 225 240
3.67089 -0.949675 3.90722 215 219 216
3.69185 -0.913109 3.94568 211 215 209
3.69083 -0.911986 3.92609 211 214 206
3.71054 -0.913423 3.9259 210 214 207
3.71088 -0.890065 3.98519 210 212 207
3.71101 -0.890428 3.96613 210 215 214
3.71159 -0.891882 3.94607 212 214 208
3.73061 -0.889848 3.92645 212 214 205
3.71184 -0.876193 4.00466 209 212 212
3.73126 -0.891549 3.96545 210 213 207
3.73082 -0.873256 3.98499 207 213 213
3.74954 -0.874179 3.94598 208 210 206
3.73686 -0.856057 4.02237 208 214 223
3.7487 -0.847554 4.00532 206 216 229
3.76658 -0.84572 3.9504 207 216 230
3.77112 -0.834768 3.98673 205 215 228
3.77108 -0.829335 4.00594 204 214 226
3.76745 -0.826146 4.0228 202 210 220
3.7859 -0.82625 3.98662 204 214 226
3.78622 -0.825556 3.96624 204 214 227
3.77644 -0.818698 4.02513 202 209 220
3.7805 -0.818417 4.01538 203 211 225
3.79128 -0.81458 4.00551 201 211 222
3.7948 -0.816927 3.98609 203 212 225
3.79254 -0.82807 4.0424 204 213 223
3.93176 -0.946372 3.76609 204 201 196
3.62604 -1.05043 3.91262 215 228 244
3.63115 -1.03068 3.94652 217 227 244
3.65392 -1.03479 3.9898 217 227 243
3.65061 -1.01044 3.98484 216 226 241
3.65021 -1.03131 4.00622 210 219 231
3.65064 -1.01158 4.00821 216 226 241
3.66085 -1.00274 3.95714 216 226 241
3.66844 -0.989439 3.93039 216 226 241
3.67084 -0.991881 3.96569 216 226 241
3.6539 -0.990932 4.00231 216 226 241
3.64892 -0.991549 3.98628 216 225 238
3.67121 -0.989133 3.98499 215 225 240
3.66921 -0.991817 4.00601 215 225 238
3.68139 -0.981877 3.96011 215 225 240
3.67133 -0.974379 4.00406 215 226 241
3.6912 -0.951025 4.00849 214 225 238
3.72725 -0.945858 4.04545 214 223 237
3.77094 -0.890463 3.98651 207 209 203
3.75069 -0.892092 4.04503 206 207 198
3.77106 -0.890589 4.04554 206 211 212
3.7908 -0.88977 3.98633 207 209 201
3.78936 -0.888856 4.00578 205 207 198
3.79072 -0.890331 4.02514 203 204 197
3.79175 -0.874379 4.00444 204 207 206
3.77333 -0.8758 4.06506 196 197 190
3.77337 -0.876187 4.04675 203 204 198
3.78979 -0.871655 4.04424 203 209 213
3.78985 -0.874512 4.02628 204 210 211
3.79118 -0.875395 3.98641 204 204 196
3.78957 -0.871219 4.06397 200 205 206
3.80889 -0.873706 4.02545 199 200 196
3.80884 -0.874768 4.04411 193 193 186
3.81381 -0.857265 4.00714 205 215 228
3.80938 -0.850187 4.04611 205 214 225
3.82785 -0.846618 4.04544 204 211 223
3.63826 -1.01834 3.9285 218 229 246
3.63771 -1.01379 3.9457 217 227 243
3.63627 -1.01204 3.9643 216 226 241
3.63615 -1.01312 3.99986 218 228 243
3.6498 -0.991289 3.96535 217 227 242
3.66791 -0.969566 3.96541 216 226 241
3.65777 -0.998016 4.02112 218 228 241
3.66647 -0.966401 3.98364 216 226 241
3.71105 -0.889215 4.02487 207 206 196
3.73122 -0.88864 4.02441 208 210 205
3.73031 -0.889582 4.00569 208 211 207
3.73252 -0.892476 3.98654 209 211 206
3.75128 -0.890746 3.9659 209 212 205
3.75 -0.888762 3.98444 207 210 205
3.75074 -0.888987 4.00392 207 208 199
3.75223 -0.877494 3.98627 207 209 204
3.77243 -0.85568 4.00724 209 219 232
3.77019 -0.853441 4.04339 204 210 217
3.78624 -0.85092 3.98963 208 218 231
3.78974 -0.847655 4.0051 206 215 225
3.79231 -0.833875 4.02702 206 215 226
3.79678 -0.838255 4.00931 206 216 229
3.8012 -0.836961 3.99476 206 216 229
3.80991 -0.827444 4.02492 205 213 225
3.82309 -0.83205 4.0131 204 214 225
3.64472 -1.04557 4.00037 217 227 242
3.67184 -1.01129 4.00526 218 227 242
3.67838 -1.01521 3.9936 217 227 242
3.68552 -1.01081 3.98968 217 227 242
3.69121 -0.993231 4.007 217 227 241
3.71001 -0.969193 4.02399 216 226 239
3.71364 -0.976132 4.00892 215 226 239
3.78928 -1.03031 3.56634 175 172 163
3.72977 -1.17105 3.60243 179 172 155
3.89003 -0.910095 3.7661 210 212 201
3.65242 -0.930635 3.60803 186 183 176
3.55264 -0.893361 3.92079 167 163 152
3.72977 -1.19065 3.5644 178 175 162
3.8917 -0.912863 3.84591 205 207 197
3.95057 -0.895212 3.74573 210 211 197
3.6292 -1.15037 3.68397 184 181 170
3.65381 -1.01139 3.64793 185 183 174
3.67246 -0.894105 3.66685 221 223 220
3.49541 -1.25139 3.80786 156 151 139
3.49496 -0.928648 3.87817 131 129 121
3.60866 -1.0704 3.72342 185 180 171
3.47508 -1.26398 3.78136 150 144 132
3.71382 -1.21298 3.54866 164 158 146
3.65272 -1.09225 3.62922 172 168 158
3.49487 -1.05058 3.82701 158 149 137
3.75028 -0.890494 4.08614 194 192 179
3.672 -0.878965 3.84647 216 217 208
3.69131 -0.879323 3.82684 216 217 208
3.74931 -0.950121 3.58361 208 208 202
3.5905 -1.07044 3.72519 183 181 171
3.73408 -1.19047 3.54953 172 168 155
3.90725 -0.915172 3.64843 185 183 168
3.74349 -0.946428 4.04159 198 197 199
3.76813 -1.23166 3.56349 177 169 157
3.70447 -1.07008 3.63917 188 184 173
3.8045 -1.08691 3.56472 162 156 140
3.65341 -0.950572 3.60868 191 187 180
3.75186 -0.876657 3.926 210 209 199
3.78849 -0.944438 3.86027 206 206 204
3.73016 -0.951056 3.62597 211 209 205
3.79028 -0.890222 4.04576 204 203 193
3.82942 -0.877552 4.02613 188 184 173
3.81186 -0.889727 3.98433 205 206 195
3.87054 -0.890901 4.00568 196 195 185
3.8312 -0.89002 3.96554 205 205 195
3.85048 -0.890107 3.96552 203 203 194
3.87087 -0.890601 3.96542 202 203 193
3.83053 -0.891525 3.92551 206 206 197
3.91165 -0.891083 3.96529 188 187 176
3.89107 -0.878519 3.94439 195 193 183
3.85068 -0.892088 3.9056 206 206 198
3.88958 -0.877209 3.92559 196 195 187
3.87128 -0.890181 3.90576 205 206 196
3.83153 -0.891431 3.88576 209 210 200
3.85046 -0.891352 3.88582 207 207 199
3.89095 -0.877786 3.90493 200 199 191
3.83021 -0.891729 3.86587 210 211 201
3.85042 -0.891545 3.86554 208 209 199
3.8902 -0.891298 3.88614 205 206 196
3.86985 -0.891052 3.86506 206 207 199
3.73499 -1.08934 3.54867 163 157 141
3.91003 -0.876256 3.88648 198 196 189
3.85116 -0.892031 3.84533 210 211 200
3.93082 -0.87596 3.88423 193 192 183
3.91082 -0.87722 3.86553 202 201 194
3.87145 -0.890842 3.84521 207 208 199
3.89027 -0.891252 3.84521 207 208 198
3.95124 -0.878397 3.88669 181 179 170
3.92988 -0.87686 3.86509 199 198 190
3.87072 -0.891643 3.82602 210 211 199
3.89144 -0.890878 3.82599 207 208 198
3.93128 -0.877054 3.84613 201 201 193
3.92963 -0.877528 3.82543 201 201 194
3.91118 -0.892785 3.82499 208 209 197
3.95043 -0.876526 3.82482 202 201 192
3.91318 -0.878644 3.80542 206 206 195
3.95108 -0.877293 3.80616 202 201 193
3.95082 -0.878 3.78679 198 199 194
3.95055 -0.89136 3.78585 207 208 196
3.97126 -0.87566 3.78497 198 198 192
3.95702 -0.87651 3.76687 189 190 192
3.83569 -0.951604 4.04785 200 198 194
3.84869 -0.947272 4.04535 203 202 192
3.83018 -0.963843 4.02056 200 198 197
3.89139 -0.928675 4.00646 200 201 192
3.86351 -0.956899 3.99441 199 199 197
3.91171 -0.92767 3.98558 200 199 191
3.89561 -0.947742 3.97287 198 198 195
3.91132 -0.926397 3.966 201 202 193
3.93097 -0.927102 3.9464 201 201 192
3.70942 -1.29081 3.58325 180 175 163
3.60245 -1.00105 3.94054 214 214 214
3.62357 -0.964981 3.96102 185 184 175
3.75153 -0.875134 4.06601 199 197 183
3.73106 -0.874292 4.04556 202 199 188
3.71033 -0.889455 4.04542 199 196 184
3.69196 -0.889795 4.02489 205 204 193
3.69165 -0.90961 4.02425 207 208 197
3.67301 -0.911574 4.00387 209 210 199
3.75614 -0.859852 4.04477 197 194 186
3.7697 -0.874267 4.02519 203 201 189
3.62277 -1.00514 3.87597 210 210 210
3.69109 -0.953751 3.90748 206 206 203
3.71056 -0.947223 3.90468 206 206 202
3.67272 -0.972508 3.86667 218 219 211
3.78962 -0.889085 3.96559 206 207 196
3.69085 -0.974131 3.86463 211 212 210
3.67299 -0.991812 3.84925 213 214 211
3.82975 -0.876378 4.0057 199 197 186
3.77022 -0.890079 3.94566 209 210 199
3.68518 -0.983395 3.85884 213 213 213
3.80919 -0.889286 3.96505 206 207 196
3.81026 -0.877408 3.94816 206 205 194
3.72942 -0.964266 3.8634 208 207 205
3.85067 -0.87432 3.96557 200 199 188
3.8108 -0.889987 3.92627 208 209 198
3.70852 -0.985185 3.84075 212 212 212
3.85116 -0.876664 3.94609 202 201 191
3.83041 -0.877001 3.94485 205 204 193
3.74515 -0.961372 3.85685 207 207 205
3.75 -0.966895 3.84498 208 208 206
3.8884 -0.878517 3.96506 184 182 171
3.75007 -0.976586 3.82849 209 209 207
3.87077 -0.877748 3.92688 203 202 191
3.76693 -0.964562 3.83971 208 207 206
3.77038 -0.971704 3.82513 208 208 206
3.91157 -0.879319 3.94098 183 179 168
3.89128 -0.89071 3.90605 205 206 195
3.79528 -0.957219 3.83181 207 207 204
3.789 -0.965677 3.82299 208 207 205
3.91134 -0.890507 3.9056 205 205 194
3.86994 -0.913026 3.86568 205 207 197
3.79108 -0.975316 3.80586 209 207 205
3.89158 -0.912258 3.88524 204 206 196
3.80542 -0.963188 3.81655 207 207 203
3.80984 -0.968512 3.80462 208 206 203
3.81216 -0.977458 3.78735 208 206 204
3.91098 -0.89145 3.86541 207 207 196
3.90887 -0.911058 3.86406 204 205 196
3.9308 -0.910352 3.86567 205 206 196
3.89028 -0.926912 3.82512 206 206 198
3.91109 -0.925737 3.82404 205 206 197
3.84918 -0.959231 3.79228 207 205 202
3.84939 -0.96591 3.78101 207 205 202
3.95124 -0.892995 3.84584 206 206 194
3.91097 -0.91255 3.82497 206 208 198
3.89077 -0.928061 3.80664 207 208 199
3.88754 -0.942716 3.80174 204 202 199
3.86632 -0.952479 3.79555 206 204 201
3.93114 -0.912217 3.82661 205 206 196
3.91105 -0.92783 3.80476 206 206 198
3.93036 -0.926392 3.80503 204 205 195
3.91039 -0.944161 3.78445 204 202 197
3.91102 -0.926492 3.78547 207 208 198
3.9509 -0.927674 3.80573 203 204 194
3.88465 -0.963739 3.76109 208 201 200
3.9507 -0.929716 3.76503 205 205 195
3.9471 -0.944282 3.76087 203 200 195
3.94015 -0.950335 3.75295 204 201 196
3.95361 -0.948364 3.74618 204 200 196
3.97163 -0.929857 3.74564 205 205 194
3.97006 -0.943971 3.74338 202 199 194
3.9734 -0.950334 3.72493 196 195 188
3.67653 -0.925928 4.02158 189 188 177
3.50843 -1.02429 3.84176 154 137 128
3.5262 -0.988349 3.84393 177 171 164
3.52548 -1.01026 3.84692 174 159 149
3.52505 -1.0098 3.82168 162 144 130
3.52885 -1.01061 3.80259 173 169 154
3.54464 -1.01285 3.79996 174 170 157
3.5674 -0.987607 3.78254 180 174 167
3.71006 -0.912851 3.90489 210 213 204
3.58931 -0.948017 3.78324 197 193 189
3.75063 -0.913496 3.8853 210 213 204
3.6103 -0.948944 3.76489 202 197 194
3.58837 -0.990172 3.74344 188 186 178
3.61117 -0.95084 3.74558 206 202 198
3.60858 -0.972002 3.74219 183 177 171
3.60609 -0.990497 3.74129 184 178 171
3.89084 -0.912576 3.94635 203 205 194
3.62326 -0.960992 3.73743 187 180 174
3.88909 -0.912711 3.92595 204 205 195
3.88982 -0.91236 3.90536 204 206 195
3.64256 -0.968202 3.71662 187 180 174
3.93153 -0.925058 3.92589 201 202 192
3.93201 -0.924977 3.9069 202 203 193
3.91085 -0.924611 3.88457 203 204 195
3.89088 -0.924989 3.86589 205 206 197
3.66236 -0.964633 3.69762 188 181 175
3.64699 -0.990388 3.68099 193 190 182
3.91134 -0.924845 3.86468 204 205 195
3.66959 -0.97127 3.68522 185 178 172
3.9304 -0.925596 3.86639 202 204 194
3.66513 -0.981401 3.68079 183 176 170
3.82967 -0.926143 3.78442 209 211 202
3.81013 -0.928814 3.76571 212 213 204
3.79086 -0.927647 3.74618 210 212 204
3.68097 -0.963641 3.6776 188 181 175
3.77127 -0.927237 3.72557 212 214 209
3.70643 -0.942476 3.68124 219 217 218
3.68766 -0.968154 3.66359 187 181 175
3.87115 -0.926476 3.78595 208 211 201
3.81241 -0.929502 3.74616 211 213 203
3.75046 -0.926744 3.70527 215 218 215
3.85012 -0.92542 3.76588 209 212 203
3.77099 -0.927965 3.70642 212 215 210
3.71081 -0.947203 3.66585 213 209 207
3.81233 -0.927003 3.72659 209 211 203
3.68917 -0.970748 3.64393 199 197 189
3.79127 -0.92838 3.70541 211 213 207
3.70407 -0.967803 3.64258 190 185 179
3.8904 -0.927024 3.76494 208 210 200
3.87047 -0.926154 3.74599 209 211 202
3.83214 -0.930396 3.72509 210 212 203
3.77138 -0.91032 3.70548 214 217 210
3.91027 -0.926814 3.76646 207 209 199
3.85197 -0.928457 3.725 211 213 203
3.93018 -0.927321 3.76612 206 207 197
3.8914 -0.927478 3.74535 208 210 200
3.87053 -0.926078 3.72597 210 212 202
3.83203 -0.927226 3.70508 209 211 202
3.76985 -0.927527 3.66556 212 214 212
3.70966 -0.970035 3.62428 199 197 189
3.74981 -0.931954 3.64433 218 218 216
3.74281 -0.942359 3.64295 215 213 214
3.89024 -0.926358 3.72503 208 210 201
3.78973 -0.92831 3.66457 214 216 212
3.87246 -0.92775 3.70602 210 211 202
3.74778 -0.945069 3.6234 214 211 209
3.95076 -0.928972 3.74539 205 207 196
3.89077 -0.926605 3.70556 209 211 201
3.79274 -0.927288 3.64591 213 215 212
3.93056 -0.927712 3.72578 207 208 198
3.87153 -0.930755 3.68695 211 213 203
3.81126 -0.927848 3.64608 212 214 209
3.89082 -0.927954 3.68627 210 211 201
3.93123 -0.926812 3.70625 207 208 198
3.91053 -0.925254 3.68531 209 210 199
3.81086 -0.928494 3.62462 212 211 208
3.77209 -0.933959 3.60673 223 224 220
3.79029 -0.931397 3.6051 214 215 212
3.76874 -0.968062 3.58261 206 205 199
3.7502 -0.969988 3.58388 200 198 189
3.87069 -0.92785 3.64421 210 211 202
3.77064 -0.951307 3.58537 213 212 209
3.93207 -0.926923 3.66735 195 194 182
3.88859 -0.927144 3.64464 201 201 190
3.85193 -0.926586 3.62276 210 211 203
3.789 -0.948478 3.58265 213 211 209
3.91125 -0.926269 3.64554 194 193 181
3.87083 -0.927357 3.62611 206 206 196
3.79173 -0.929719 3.58355 224 226 220
3.891 -0.925727 3.62585 200 200 189
3.84885 -0.928179 3.60503 202 201 193
3.78956 -0.952214 3.56658 209 209 203
3.90466 -0.929127 3.62931 196 195 184
3.81002 -0.951229 3.5656 190 188 181
3.80919 -0.958029 3.55047 163 157 148
3.61322 -1.14977 3.68755 174 172 161
3.52399 -1.01321 3.86342 175 169 162
3.65506 -0.926344 3.99983 207 204 194
3.57202 -0.907917 3.92443 208 208 199
3.55193 -0.909535 3.90341 215 216 209
3.537 -1.07721 3.85217 161 150 140
3.73297 -0.911975 4.06239 206 207 195
3.55411 -1.1096 3.83036 161 150 140
3.6702 -0.910471 3.92562 211 214 204
3.69063 -0.911545 3.90537 210 214 204
3.69105 -0.911326 3.88534 211 215 205
3.71058 -0.911812 3.88571 211 214 205
3.60266 -1.0856 3.77637 174 167 160
3.71025 -0.911865 3.8662 211 215 206
3.73086 -0.911443 3.86579 211 214 205
3.63136 -0.907993 3.78544 218 222 218
3.65052 -0.908008 3.76537 217 222 218
3.54773 -0.879945 3.88971 217 218 210
3.67044 -0.908965 3.74535 217 222 218
3.93378 -0.908357 3.94645 202 204 193
3.91047 -0.910377 3.92489 203 205 195
3.93133 -0.909503 3.92757 203 205 194
3.90954 -0.912474 3.90429 204 206 196
3.81031 -0.912672 3.82491 210 213 203
3.93057 -0.908087 3.90516 204 206 195
3.85151 -0.91275 3.84576 207 211 201
3.83027 -0.911498 3.82666 209 212 202
3.9314 -0.908231 3.88623 205 206 195
3.87245 -0.912722 3.84593 206 208 198
3.85012 -0.912261 3.82502 208 211 201
3.77091 -0.910559 3.76567 212 215 206
3.8707 -0.911983 3.82627 207 210 200
3.83035 -0.912295 3.80569 210 213 203
3.81065 -0.911695 3.78435 211 214 204
3.79064 -0.910404 3.76556 212 216 206
3.66754 -1.01146 3.66192 193 190 181
3.89136 -0.912536 3.82544 206 209 198
3.85101 -0.911433 3.80479 210 212 201
3.8105 -0.91103 3.76468 212 215 205
3.87008 -0.909969 3.78585 210 213 202
3.79074 -0.91111 3.72601 212 215 206
3.73034 -0.909673 3.68485 216 220 216
3.71088 -0.927635 3.66554 219 221 219
3.68761 -0.990952 3.64312 193 190 182
3.68876 -1.00978 3.64266 193 188 178
3.9102 -0.909687 3.80442 207 210 199
3.85185 -0.910421 3.76451 212 215 204
3.75125 -0.909935 3.68534 216 220 215
3.68896 -0.928465 3.64376 209 210 205
3.91029 -0.909754 3.7849 209 211 200
3.87094 -0.910006 3.76437 211 213 203
3.85079 -0.91109 3.7454 212 214 204
3.81129 -0.910408 3.72508 213 216 206
3.79108 -0.910371 3.70531 213 216 207
3.70836 -0.926755 3.64422 222 223 221
3.69011 -0.950937 3.62531 192 191 183
3.68953 -0.971087 3.62458 193 191 182
3.75021 -0.909341 3.66505 216 220 215
3.70736 -0.991347 3.62308 195 192 183
3.95035 -0.908425 3.78513 208 210 198
3.91025 -0.91004 3.76472 210 212 201
3.85117 -0.910008 3.72532 213 215 205
3.79129 -0.909191 3.68536 214 218 209
3.70835 -0.927874 3.62385 212 214 209
3.708 -1.01073 3.62224 192 188 176
3.93045 -0.908121 3.76532 210 212 200
3.8715 -0.910654 3.72585 213 215 204
3.75076 -0.910047 3.64554 217 221 216
3.73025 -0.909044 3.64485 219 223 220
3.69315 -0.970053 3.60775 185 182 170
3.91143 -0.908767 3.74512 211 213 202
3.71149 -0.931084 3.60642 198 199 192
3.69409 -0.950989 3.60843 189 187 178
3.70906 -0.97082 3.60456 192 190 180
3.70929 -0.990648 3.6047 184 181 169
3.9311 -0.909806 3.745 210 212 200
3.73019 -0.910989 3.62533 220 223 220
3.70946 -0.95091 3.60411 194 193 185
3.72911 -1.03072 3.60388 176 172 158
3.9511 -0.910276 3.74526 209 212 199
3.91031 -0.910387 3.72569 212 214 203
3.85094 -0.911122 3.6857 213 215 205
3.81095 -0.910198 3.6654 214 217 208
3.72902 -1.01183 3.60276 174 170 160
3.96992 -0.911276 3.74572 207 209 196
3.89102 -0.911368 3.70513 213 215 203
3.83094 -0.910364 3.66543 214 216 207
3.77058 -0.909954 3.62576 217 220 215
3.71269 -0.951031 3.58691 182 180 171
3.91119 -0.911758 3.7051 212 214 202
3.81114 -0.909324 3.64593 215 218 210
3.74616 -0.927439 3.60308 223 225 222
3.71312 -0.931728 3.58691 187 185 177
3.73007 -0.990571 3.58416 175 172 162
3.72993 -1.01062 3.58475 174 170 158
3.98864 -0.91146 3.74615 195 195 181
3.89074 -0.910617 3.68413 213 215 204
3.83102 -0.910079 3.64559 214 216 207
3.79096 -0.909761 3.62556 216 219 212
3.7311 -0.930383 3.58586 195 195 188
3.72927 -0.970434 3.58347 182 180 171
3.74976 -1.03121 3.58371 166 161 148
3.96917 -0.912745 3.72599 194 194 180
3.93105 -0.912493 3.70538 210 212 199
3.87114 -0.911208 3.6656 213 215 205
3.77031 -0.909402 3.60563 218 221 217
3.72948 -0.950831 3.58504 194 193 185
3.9508 -0.913211 3.70676 193 194 181
3.92911 -0.913933 3.68699 198 199 186
3.89009 -0.912401 3.66529 211 212 201
3.85071 -0.910007 3.64575 214 216 206
