ply
format ascii 1.0
comment Created by Open3D
element vertex 299
property double x
property double y
property double z
property uchar red
property uchar green
property uchar blue
end_header
1.63216 -0.648415 0.727199 85 95 100
1.7519 -0.670663 0.604541 92 98 99
1.6675 -0.672282 0.731341 86 85 86
1.7925 -0.649813 0.647982 157 158 159
1.65125 -0.629342 0.705888 88 94 97
1.7604 -0.63367 0.572275 78 80 89
1.73446 -0.596915 0.666178 150 152 153
1.69369 -0.591143 0.688627 150 153 154
1.82877 -0.591625 0.606265 165 165 167
1.80886 -0.611277 0.645691 164 165 166
1.63435 -0.646852 0.771157 98 99 98
1.7317 -0.59917 0.679935 162 162 164
1.77748 -0.593592 0.665558 167 168 170
1.79455 -0.632457 0.607649 144 144 148
1.80332 -0.626911 0.64118 160 159 161
1.7839 -0.5866 0.680127 156 157 159
1.6679 -0.607316 0.689324 112 112 116
1.7705 -0.628454 0.585004 131 132 137
1.77999 -0.557593 0.684359 161 162 163
1.75355 -0.589389 0.708125 169 169 171
1.79469 -0.592389 0.588763 149 149 149
1.73915 -0.597335 0.632519 160 161 163
1.68993 -0.589936 0.703442 152 154 155
1.76512 -0.651286 0.583779 127 130 134
1.6273 -0.654956 0.735668 70 83 86
1.70823 -0.612488 0.684527 150 151 154
1.64966 -0.633191 0.762638 112 109 106
1.79187 -0.593391 0.605619 160 160 162
1.65181 -0.648818 0.70446 50 79 92
1.74112 -0.612986 0.735602 201 200 204
1.75007 -0.650963 0.603956 126 128 130
1.80871 -0.588155 0.604831 167 166 168
1.66597 -0.549836 0.706741 166 166 168
1.77348 -0.611795 0.575438 140 142 144
1.78961 -0.591065 0.625015 163 165 167
1.76588 -0.669086 0.563717 93 104 109
1.72589 -0.610935 0.742366 204 203 207
1.815 -0.592001 0.625296 165 165 167
1.73356 -0.62762 0.64436 89 94 107
1.69036 -0.554051 0.704495 156 158 159
1.67045 -0.65026 0.76594 135 129 121
1.65734 -0.690528 0.723493 89 91 93
1.6588 -0.668795 0.720853 72 83 87
1.66663 -0.615313 0.737262 117 116 114
1.80939 -0.610555 0.603705 160 159 161
1.75202 -0.666909 0.62499 83 93 91
1.73487 -0.642582 0.729627 189 188 189
1.7708 -0.631125 0.641974 144 145 148
1.68229 -0.648825 0.761148 135 127 114
1.67304 -0.631424 0.765559 144 142 138
1.62897 -0.636517 0.713118 39 74 88
1.75479 -0.612997 0.685826 155 154 156
1.80694 -0.629942 0.586861 156 156 158
1.66363 -0.588046 0.743988 158 159 161
1.69856 -0.570777 0.669707 153 155 156
1.65873 -0.687127 0.740635 93 93 93
1.75239 -0.609328 0.70543 181 180 183
1.75981 -0.580054 0.666409 161 162 164
1.68695 -0.570247 0.706867 153 155 156
1.68596 -0.627276 0.766776 159 158 158
1.77213 -0.571371 0.685891 159 160 162
1.67348 -0.550924 0.726496 157 159 160
1.66686 -0.610094 0.707524 108 109 111
1.74872 -0.594251 0.721394 199 198 202
1.75493 -0.631344 0.604929 124 126 129
1.82107 -0.621364 0.568188 148 149 151
1.69211 -0.648481 0.727035 118 115 114
1.69539 -0.617894 0.723092 183 183 186
1.70335 -0.550247 0.69802 154 154 156
1.79088 -0.571102 0.644919 158 159 160
1.67838 -0.571532 0.692823 144 147 148
1.76067 -0.580119 0.703505 143 143 145
1.79249 -0.556226 0.648874 161 162 163
1.66146 -0.651419 0.714535 55 80 94
1.75198 -0.631072 0.645868 131 133 137
1.80468 -0.583058 0.643627 156 156 158
1.671 -0.634537 0.748 127 126 122
1.71108 -0.612435 0.745862 218 217 221
1.773 -0.571285 0.666494 155 156 158
1.65213 -0.626883 0.741372 57 74 79
1.75304 -0.64756 0.648537 139 141 142
1.6959 -0.616331 0.74478 170 169 171
1.75294 -0.597029 0.611049 156 157 158
1.74692 -0.626248 0.706263 185 184 187
1.71231 -0.611973 0.663117 152 154 157
1.7198 -0.652118 0.652913 97 97 99
1.74759 -0.68915 0.603511 56 72 77
1.68346 -0.592281 0.725423 181 182 184
1.75161 -0.612035 0.625509 138 142 142
1.73862 -0.616257 0.705088 171 170 172
1.76911 -0.572299 0.6451 164 165 167
1.72389 -0.644672 0.746956 163 163 162
1.65668 -0.557253 0.705828 154 154 156
1.71034 -0.551011 0.684649 156 157 158
1.72799 -0.608613 0.667298 145 147 148
1.69519 -0.599309 0.635267 162 165 166
1.75097 -0.651006 0.624102 134 137 137
1.63531 -0.616205 0.685975 99 103 108
1.6572 -0.554164 0.694797 164 164 166
1.76766 -0.628555 0.680972 159 158 160
1.73539 -0.562527 0.655807 154 156 157
1.65523 -0.648812 0.748391 87 89 89
1.69433 -0.612025 0.70359 157 158 159
1.63669 -0.609669 0.747591 98 98 97
1.68615 -0.617088 0.781177 144 141 140
1.70861 -0.612017 0.756883 205 204 207
1.66957 -0.6334 0.728131 98 107 111
1.64494 -0.611211 0.764226 141 140 139
1.67158 -0.657022 0.796201 147 138 127
1.81121 -0.611329 0.625928 164 165 167
1.73369 -0.670781 0.589193 78 87 89
1.70938 -0.589525 0.649484 149 152 153
1.7321 -0.598683 0.650855 161 162 164
1.686 -0.627409 0.746251 134 133 132
1.76639 -0.591602 0.60429 153 154 155
1.6969 -0.62949 0.704851 129 134 137
1.7119 -0.571028 0.666325 150 152 154
1.65583 -0.611789 0.725912 109 112 112
1.77348 -0.629076 0.605432 136 139 147
1.6335 -0.629377 0.767318 102 103 103
1.69147 -0.615764 0.767103 159 158 160
1.81447 -0.591967 0.57163 146 143 144
1.65069 -0.570918 0.691442 165 165 166
1.77372 -0.59389 0.629542 159 159 161
1.82827 -0.5902 0.62375 161 162 163
1.7526 -0.653649 0.566474 103 106 114
1.77275 -0.610085 0.645641 159 159 161
1.68948 -0.623153 0.634759 87 88 100
1.69683 -0.646801 0.700539 85 103 112
1.65291 -0.572272 0.705041 156 156 158
1.81197 -0.629705 0.565931 156 157 159
1.70201 -0.589196 0.684323 149 151 152
1.66894 -0.689551 0.727336 87 87 87
1.63203 -0.609954 0.767936 117 116 114
1.79227 -0.629404 0.626029 157 157 159
1.63446 -0.637639 0.725993 37 74 89
1.67175 -0.569553 0.727911 148 150 151
1.66655 -0.667937 0.787055 134 130 123
1.64778 -0.649178 0.764747 101 100 100
1.74523 -0.627803 0.724042 204 203 206
1.80946 -0.611604 0.569539 158 159 160
1.73085 -0.611769 0.642873 144 146 151
1.6946 -0.593678 0.666577 152 153 155
1.65126 -0.610444 0.743164 124 127 126
1.70646 -0.630068 0.708338 122 121 120
1.70949 -0.607857 0.727107 172 171 174
1.66904 -0.608627 0.724895 141 143 144
1.79083 -0.616889 0.570281 168 168 169
1.78872 -0.648072 0.625927 118 120 128
1.64732 -0.590375 0.705868 110 113 123
1.7897 -0.570134 0.684098 152 153 155
1.72083 -0.621341 0.661585 35 46 71
1.67137 -0.638628 0.784374 147 140 135
1.79151 -0.626364 0.563338 140 141 142
1.79532 -0.631752 0.645383 161 161 163
1.67185 -0.591647 0.705465 150 152 153
1.77257 -0.612903 0.607352 152 153 155
1.73299 -0.630655 0.725765 167 166 168
1.76743 -0.590366 0.702639 167 167 170
1.77376 -0.611937 0.625896 159 159 161
1.74869 -0.588846 0.646167 157 158 160
1.65857 -0.671486 0.7385 91 91 90
1.64646 -0.589803 0.726806 140 142 147
1.72247 -0.648747 0.657868 150 151 153
1.73334 -0.608285 0.626432 154 155 159
1.7355 -0.652739 0.605742 86 91 99
1.73324 -0.655359 0.624802 113 114 114
1.65892 -0.664732 0.788308 142 134 123
1.67047 -0.589629 0.724325 152 153 155
1.73155 -0.625223 0.680307 185 185 188
1.75112 -0.586164 0.664284 165 167 168
1.75444 -0.626606 0.663743 169 168 170
1.65045 -0.670028 0.706121 64 82 90
1.65336 -0.570473 0.748085 155 156 158
1.66754 -0.650091 0.785001 141 134 124
1.71404 -0.648364 0.665421 112 119 124
1.64337 -0.652411 0.691182 49 76 88
1.77404 -0.57848 0.607984 156 155 156
1.78322 -0.56906 0.696796 147 148 151
1.67102 -0.655977 0.749303 109 108 105
1.64842 -0.570821 0.723627 155 155 157
1.69401 -0.608517 0.667229 131 133 137
1.69331 -0.598111 0.647671 153 155 158
1.68906 -0.60889 0.643687 106 108 114
1.68934 -0.614756 0.633741 104 105 114
1.65197 -0.588614 0.746923 166 167 169
1.75483 -0.610717 0.607073 140 143 143
1.74996 -0.628722 0.6262 124 127 130
1.69375 -0.570279 0.687367 148 151 152
1.75197 -0.590273 0.62532 148 149 150
1.72523 -0.654936 0.6466 121 125 127
1.77073 -0.613177 0.58537 147 149 150
1.73247 -0.671128 0.605632 98 102 102
1.75366 -0.631869 0.586683 113 115 122
1.75098 -0.649865 0.585568 109 112 120
1.75123 -0.669953 0.584596 91 97 100
1.76892 -0.650673 0.563695 117 118 125
1.75153 -0.689595 0.584479 72 82 86
1.67197 -0.531484 0.726221 153 154 155
1.71272 -0.629773 0.664792 99 101 104
1.70921 -0.631163 0.683955 132 135 136
1.69829 -0.643961 0.694981 184 182 189
1.7688 -0.627903 0.573065 121 121 123
1.79229 -0.57116 0.666667 158 159 161
1.72772 -0.615089 0.680618 168 168 170
1.70672 -0.612103 0.706546 166 165 167
1.66664 -0.653735 0.727915 77 86 91
1.75217 -0.614138 0.648394 152 152 154
1.74528 -0.669445 0.64354 121 134 135
1.79225 -0.573775 0.60511 123 121 120
1.77317 -0.573457 0.625135 161 161 163
1.73856 -0.654736 0.590819 89 96 103
1.66692 -0.549569 0.741534 157 156 158
1.80936 -0.589445 0.584783 160 160 162
1.78645 -0.609099 0.606067 150 152 153
1.78784 -0.612546 0.58803 157 158 158
1.77137 -0.628278 0.625914 146 147 150
1.78293 -0.630267 0.583623 131 132 137
1.76353 -0.655404 0.600664 148 149 149
1.7617 -0.661624 0.580364 91 100 104
1.68475 -0.571234 0.717377 156 156 158
1.78715 -0.609554 0.622209 152 153 155
1.81392 -0.610888 0.586787 154 154 156
1.80271 -0.652946 0.596977 83 94 113
1.77925 -0.592511 0.646092 166 168 170
1.79573 -0.553398 0.626394 135 131 128
1.76981 -0.609737 0.664837 158 158 159
1.75259 -0.616811 0.668543 157 157 159
1.69065 -0.631224 0.728564 133 132 132
1.81182 -0.573102 0.604358 142 142 142
1.77733 -0.644985 0.63748 131 131 133
1.79203 -0.645093 0.609913 99 105 117
1.69651 -0.608097 0.688876 151 153 155
1.72976 -0.56876 0.648623 156 157 159
1.70484 -0.571417 0.683252 157 158 160
1.70591 -0.591128 0.665155 147 150 151
1.71212 -0.576044 0.647463 143 145 147
1.7139 -0.634813 0.654331 84 87 88
1.66457 -0.571362 0.740494 153 153 155
1.66739 -0.67422 0.74457 91 93 94
1.6951 -0.551331 0.690356 151 153 154
1.67521 -0.573313 0.707404 144 147 148
1.65462 -0.621905 0.726262 69 82 86
1.66491 -0.62498 0.709119 56 75 82
1.67171 -0.589742 0.689445 146 149 150
1.67981 -0.598532 0.661094 130 133 135
1.65427 -0.55116 0.746784 165 165 167
1.69319 -0.622944 0.688196 88 88 88
1.75432 -0.579069 0.627984 163 164 165
1.71326 -0.606487 0.645887 154 157 158
1.7378 -0.61466 0.612444 152 154 158
1.7314 -0.625052 0.617375 119 121 129
1.65965 -0.535285 0.726572 161 160 162
1.65529 -0.552283 0.726212 165 164 166
1.63765 -0.573032 0.735004 152 153 155
1.6364 -0.579435 0.736806 153 154 156
1.63591 -0.592907 0.743465 136 137 139
1.6782 -0.676428 0.714484 88 89 89
1.64024 -0.596785 0.727127 116 118 119
1.65629 -0.613518 0.704819 82 84 91
1.65269 -0.612973 0.686304 79 81 87
1.68469 -0.547099 0.719582 162 161 163
1.68107 -0.684922 0.743878 39 66 82
1.6627 -0.663011 0.764188 90 101 106
1.79365 -0.572772 0.626407 167 167 169
1.62591 -0.664544 0.73888 52 74 82
1.64301 -0.626842 0.689194 102 103 103
1.77071 -0.575099 0.703115 160 161 163
1.73375 -0.609144 0.72771 217 216 220
1.72945 -0.633389 0.743614 162 162 164
1.71297 -0.63017 0.744346 162 161 163
1.77305 -0.5917 0.687251 153 153 155
1.71465 -0.644837 0.74747 141 138 136
1.81045 -0.569225 0.646003 158 158 160
1.78909 -0.590515 0.66501 162 162 164
1.76812 -0.609001 0.684091 157 156 158
1.81227 -0.571971 0.62641 163 163 165
1.79668 -0.631491 0.660121 160 161 163
1.79382 -0.651131 0.664976 162 163 165
1.82273 -0.605403 0.610529 169 170 172
1.76288 -0.604788 0.697548 159 159 161
1.77229 -0.625708 0.665532 162 161 163
1.78833 -0.590927 0.647099 165 166 168
1.67492 -0.618995 0.783227 180 180 180
1.65439 -0.652926 0.785175 136 132 124
1.70321 -0.628946 0.724146 143 141 142
1.68416 -0.647013 0.745766 134 128 119
1.78155 -0.6018 0.644316 165 166 168
1.70273 -0.65137 0.724496 125 121 114
1.748 -0.610449 0.722574 213 212 216
1.73509 -0.631332 0.710467 172 171 173
1.7513 -0.624646 0.685054 165 164 166
1.73479 -0.595336 0.724168 183 184 186
1.75819 -0.581998 0.690843 160 161 163
1.73431 -0.592855 0.714203 165 164 166
1.71878 -0.600338 0.727052 135 134 136
1.80713 -0.616825 0.658878 162 163 165
1.82204 -0.597705 0.639231 162 164 164
1.80468 -0.622316 0.600582 165 164 166
