ply
format ascii 1.0
comment Created by Open3D
element vertex 1313
property double x
property double y
property double z
property uchar red
property uchar green
property uchar blue
end_header
1.85074 -0.716538 3.06535 176 182 134
2.30921 -0.570615 3.22236 111 103 104
2.29338 -0.593873 3.20724 143 141 148
2.2503 -0.611951 3.14581 205 209 229
2.33284 -0.212069 3.23113 140 130 122
2.3143 -0.430543 3.2057 121 112 110
2.30833 -0.591278 3.20271 109 100 104
2.30976 -0.613096 3.20709 175 177 194
2.28539 -0.671554 3.30142 116 112 118
1.57092 -0.670529 3.46579 165 167 174
2.32628 -0.22665 3.21119 122 115 114
2.31129 -0.2503 3.21058 113 106 102
2.31657 -0.26961 3.21202 113 106 103
2.31529 -0.29047 3.21162 115 107 106
2.31363 -0.311925 3.20977 116 108 107
2.29345 -0.611945 3.1854 189 183 190
1.60188 -0.885098 2.81522 39 44 52
2.37125 -0.129985 3.24259 220 186 139
2.35164 -0.130041 3.22424 217 185 141
2.29502 -0.611292 3.16585 211 209 215
2.32357 -0.371052 3.19603 116 108 107
2.33507 -0.392226 3.20855 119 110 110
2.32589 -0.432505 3.19114 120 112 111
2.29207 -0.632386 3.16592 217 214 219
2.49572 -0.770752 3.3224 127 112 101
1.15713 -0.71509 3.39087 30 32 39
1.22159 -0.721685 3.53004 117 82 61
1.22646 -0.571075 3.59418 131 112 108
1.24834 -0.621792 3.59343 139 129 141
1.25653 -0.565911 3.62716 133 131 136
1.31491 -0.624434 3.38077 30 30 37
1.33756 -0.582969 3.4226 21 21 30
2.41023 -0.655777 3.64611 70 68 71
1.40505 -0.529398 3.6124 121 124 123
1.43075 -0.491135 3.66632 85 86 84
1.51333 -0.491639 3.70823 40 43 51
1.63015 -0.728456 2.80584 41 49 62
1.72539 -1.08444 3.08119 2 3 5
1.53196 -0.639825 3.28544 75 63 54
1.5319 -0.638392 3.32467 148 120 101
1.524 -0.639888 3.25541 56 49 43
1.64737 -0.575496 3.754 22 21 30
1.56967 -0.630023 3.3265 32 43 55
1.57062 -0.637826 3.30664 131 131 138
1.57648 -0.597453 3.33424 14 13 16
1.57365 -0.638737 3.28824 132 135 143
1.57076 -0.649876 3.24599 179 183 193
1.58472 -0.628453 3.3215 26 38 48
1.58991 -0.63232 3.30799 79 80 86
1.70718 -0.66249 3.8238 53 47 49
2.73114 -0.690609 3.64564 222 168 122
1.6903 -0.371376 3.82299 116 109 105
1.59131 -0.650449 3.24563 182 188 198
1.60946 -0.629102 3.30269 90 92 98
1.6098 -0.634729 3.28581 103 104 109
2.28771 -0.190208 3.44276 158 139 120
1.72953 -0.650716 3.74336 119 141 141
1.61103 -0.650402 3.24526 192 198 209
1.61093 -0.65235 3.22522 175 181 191
1.6233 -0.62798 3.30131 124 127 135
1.63078 -0.631355 3.28576 100 102 108
1.61104 -0.634279 3.26793 190 197 207
1.74823 -0.650191 3.72528 123 148 144
2.51065 -0.692178 4.14536 189 138 86
1.77118 -0.651996 3.72707 99 112 112
1.6493 -0.631557 3.28483 123 127 134
1.77075 -0.650722 3.74482 90 91 94
1.77159 -0.669434 3.74362 100 93 92
1.79125 -0.651295 3.72679 98 99 100
1.49415 -0.530096 3.72059 34 36 43
1.78998 -0.669249 3.74389 98 89 86
1.79227 -0.670025 3.72703 96 92 92
1.80924 -0.650668 3.72434 94 98 100
1.81184 -0.670602 3.72616 87 86 85
1.6706 -0.652666 3.2255 174 181 189
1.84759 -0.23044 3.88582 141 125 118
1.68468 -0.628801 3.27926 34 32 34
1.69276 -0.639378 3.25203 58 54 54
1.6908 -0.652327 3.2458 166 174 185
1.83593 -0.702325 3.70447 35 34 40
1.68974 -0.654089 3.22568 146 151 160
1.87111 -0.229585 3.80519 128 117 114
1.691 -0.65555 3.20715 175 185 195
1.89027 -0.670256 2.96559 174 186 192
1.86997 -0.651919 3.68566 89 101 102
1.87148 -0.689768 3.68399 81 87 85
2.61044 -0.708891 4.16508 121 87 55
1.83108 -0.689711 3.58331 62 52 47
1.70876 -0.657966 3.20676 225 234 239
1.8714 -0.732443 3.68464 34 30 32
1.87034 -0.729742 3.66521 56 44 43
1.83303 -0.707792 3.56326 85 63 47
1.72316 -0.639688 3.2478 56 49 53
1.71196 -0.667872 3.22455 222 230 235
1.87217 -0.750369 3.62643 86 64 48
1.79077 -0.672713 3.42451 41 49 58
1.79116 -0.673297 3.40488 42 50 60
1.77124 -0.673684 3.34568 107 100 99
1.73155 -0.669497 3.22659 226 232 234
1.89073 -0.650592 3.66617 83 87 87
1.88971 -0.73031 3.6675 35 30 31
1.81096 -0.691768 3.46688 38 43 49
1.79084 -0.674065 3.36611 52 59 71
1.77106 -0.674474 3.30696 214 192 174
1.89084 -0.290947 3.66611 70 70 71
1.88975 -0.748978 3.62583 91 67 52
1.85077 -0.708681 3.52587 78 61 51
2.37094 -0.588779 3.56459 179 158 148
1.81068 -0.693388 3.44726 40 45 51
1.81221 -0.691725 3.42623 43 47 54
1.75117 -0.689582 3.26753 234 234 231
1.89249 -0.233577 3.68669 109 96 94
1.91116 -0.649565 3.66435 108 109 114
1.9107 -0.669834 3.66423 46 52 55
1.8298 -0.693317 3.44569 38 42 49
1.83079 -0.691163 3.42427 33 38 47
1.80998 -0.687186 3.38492 47 50 58
1.7713 -0.673593 3.28608 223 212 202
1.91133 -0.650929 3.64513 107 98 99
1.91119 -0.671578 3.64546 62 55 54
1.91097 -0.689506 3.64399 50 41 40
1.87118 -0.728591 3.56379 105 76 58
1.8506 -0.691901 3.48583 49 50 53
1.79178 -0.691653 3.28769 186 169 156
1.77064 -0.689437 3.24802 201 201 200
2.05189 -0.851027 2.87184 36 41 51
2.73164 -0.37082 4.12377 38 42 48
1.89172 -0.7525 3.57398 27 27 34
1.81166 -0.689695 3.3249 137 135 137
1.79181 -0.692031 3.32546 168 148 134
1.79163 -0.692209 3.26688 207 204 198
1.93127 -0.651568 3.64419 56 56 63
1.93053 -0.670895 3.64348 60 58 62
1.93104 -0.730265 3.62937 49 39 36
1.82937 -0.687548 3.36505 59 63 71
1.81128 -0.690857 3.30565 163 156 157
1.79116 -0.675219 3.26526 225 213 202
1.94944 -0.689197 3.6418 34 30 33
1.93042 -0.708038 3.62351 37 30 29
1.87098 -0.689301 3.4655 39 44 52
1.83082 -0.689397 3.34558 105 109 117
2.66967 -0.727108 3.50534 205 203 202
1.99078 -0.212917 3.76298 133 133 131
1.94904 -0.709882 3.64088 46 35 35
1.94951 -0.708832 3.62634 52 40 36
1.94724 -0.726834 3.6244 42 34 34
2.22989 -0.686185 4.28619 187 141 96
1.89039 -0.728569 3.50542 134 97 71
1.87046 -0.690931 3.42422 41 49 59
1.83171 -0.690169 3.30526 103 106 116
1.8112 -0.675822 3.26484 195 186 183
1.97099 -0.212705 3.70609 157 156 153
1.95029 -0.726795 3.60325 71 52 42
1.89056 -0.690473 3.44534 43 49 59
1.87063 -0.689883 3.40515 42 51 62
1.85055 -0.688855 3.34415 59 65 75
1.85118 -0.687475 3.32493 66 72 83
1.83097 -0.675936 3.30421 69 75 90
1.83089 -0.674917 3.26512 122 124 130
1.81307 -0.685205 3.24421 216 201 188
1.81037 -0.675679 3.22633 228 222 217
1.96993 -0.709008 3.60462 46 37 36
1.97051 -0.729633 3.58706 66 51 46
1.89171 -0.687864 3.40722 43 52 64
1.87083 -0.686767 3.36627 49 57 68
1.85184 -0.688001 3.30436 84 89 99
1.99157 -0.671388 3.62574 19 19 26
1.98999 -0.688489 3.60612 46 40 42
1.97054 -0.731209 3.56416 81 59 46
1.91111 -0.688811 3.42603 54 58 65
1.89041 -0.686824 3.38772 47 55 68
1.89105 -0.687417 3.36675 51 59 72
1.83082 -0.686852 3.22516 219 201 187
1.97219 -0.270652 3.58651 65 63 63
1.99185 -0.671681 3.60736 30 28 32
1.97189 -0.731223 3.54946 85 64 52
1.91126 -0.707635 3.44434 96 78 66
1.83122 -0.675664 3.2266 217 202 192
1.97255 -0.311317 3.56718 67 63 63
1.91128 -0.68801 3.3869 75 73 77
1.85102 -0.675017 3.24545 126 123 125
2.06467 -0.669398 3.29813 230 235 246
1.98873 -0.270669 3.5831 69 66 66
1.97017 -0.410461 3.52524 53 48 50
1.99226 -0.733448 3.55029 85 63 51
1.89099 -0.686841 3.32509 58 69 85
1.89049 -0.688305 3.3047 57 68 85
1.8717 -0.688543 3.28533 79 85 97
1.85096 -0.687521 3.22564 186 172 164
2.05092 -0.213158 3.70856 150 151 150
2.01123 -0.67238 3.58646 49 48 52
2.01305 -0.711533 3.56795 69 55 51
2.01162 -0.728201 3.56471 76 58 52
1.99183 -0.752066 3.52686 70 56 53
1.87181 -0.689594 3.26562 112 111 116
1.87052 -0.689172 3.24566 137 132 135
1.99155 -0.351536 3.52707 55 52 54
2.11243 -0.617089 3.32381 165 138 125
1.99165 -0.37091 3.52655 57 54 55
2.03066 -0.67184 3.58568 59 55 57
2.03093 -0.690618 3.58626 39 35 38
1.91099 -0.687091 3.32581 55 66 81
1.87019 -0.688582 3.22452 163 155 152
1.99141 -0.411263 3.50605 53 49 50
2.03036 -0.651867 3.56337 50 48 51
2.02969 -0.706127 3.58628 39 32 34
2.01139 -0.730701 3.52512 93 71 59
1.91066 -0.687741 3.30515 55 68 85
1.91056 -0.689208 3.28565 61 73 91
2.03128 -0.21268 3.6055 179 176 171
2.05069 -0.68925 3.58487 59 50 50
1.9314 -0.687593 3.32568 55 65 81
1.89108 -0.689383 3.24708 109 106 110
1.89085 -0.689011 3.22575 154 138 130
2.01214 -0.351023 3.50662 55 52 52
2.01188 -0.371375 3.50676 58 55 55
2.01159 -0.750178 3.48317 95 74 63
1.95115 -0.68746 3.34616 59 68 83
1.9311 -0.688402 3.30562 59 71 89
1.91081 -0.689473 3.266 84 90 102
2.0701 -0.21047 3.60575 142 143 141
2.01235 -0.431239 3.48714 60 54 55
2.03077 -0.7498 3.48477 112 89 79
2.032 -0.311345 3.50655 61 58 58
2.0698 -0.671254 3.56465 55 49 51
2.07133 -0.69137 3.56473 75 64 62
2.01119 -0.757021 3.46943 107 81 68
1.94992 -0.689474 3.30533 68 79 96
1.91024 -0.69125 3.22687 182 149 126
1.8897 -0.634851 3.44566 177 131 95
2.30369 -0.529259 3.63694 185 143 102
2.03198 -0.371342 3.48618 57 53 53
2.19714 -0.518154 3.25426 192 178 171
2.04683 -0.744227 3.50246 100 90 91
2.04941 -0.748121 3.4828 63 54 55
2.03159 -0.755432 3.46914 119 90 72
1.92897 -0.690975 3.24503 155 149 150
2.05009 -0.2704 3.50495 71 66 65
2.05003 -0.290195 3.50405 66 63 62
2.0315 -0.431098 3.46569 61 54 55
1.95096 -0.690067 3.28706 99 118 139
1.94967 -0.688284 3.26615 132 149 168
1.87093 -0.652158 4.10574 120 115 112
2.01182 -0.729438 3.38818 96 86 87
1.97014 -0.689964 3.30702 106 119 135
2.23202 -0.250454 3.62521 73 75 78
1.93019 -0.710727 3.24546 149 172 193
2.11015 -0.211177 3.58417 138 140 138
1.99046 -0.690746 3.3269 118 122 131
1.96927 -0.711741 3.26656 133 191 236
1.9495 -0.709176 3.25078 139 185 220
2.07056 -0.271319 3.48512 81 72 68
2.06955 -0.290041 3.48358 79 70 66
1.89042 -0.29088 3.74351 87 86 87
2.01159 -0.706553 3.34554 169 177 189
1.9901 -0.710969 3.30536 171 169 175
2.07095 -0.311281 3.46565 85 75 68
2.07052 -0.330375 3.46501 82 73 67
2.03041 -0.71075 3.36625 147 124 113
1.99727 -0.725765 3.31192 171 179 190
2.00819 -0.67089 3.62469 22 21 27
1.98038 -0.720922 3.27732 148 201 255
2.57508 -1.04989 3.32113 50 52 59
2.08949 -0.269173 3.48444 84 74 67
2.05267 -0.731277 3.38388 154 152 158
2.02937 -0.729744 3.34687 170 164 167
1.98797 -0.713339 3.28618 163 195 225
1.97563 -0.71163 3.24879 133 177 216
2.12977 -1.12924 3.3641 10 9 11
2.11043 -0.89062 2.96502 75 77 88
2.11111 -0.711725 3.4842 139 121 114
2.11118 -0.729311 3.46651 150 127 117
2.09102 -0.749035 3.44694 124 99 89
2.04614 -0.744333 3.38213 184 163 157
2.03766 -0.758513 3.35278 194 223 251
2.09045 -0.310705 3.44526 90 77 70
2.12963 -0.670313 3.50486 79 74 77
2.09227 -0.748376 3.43026 142 119 112
2.59075 -0.390865 4.24651 44 47 53
2.11014 -0.729774 3.44565 160 134 122
2.18942 -0.230063 3.60628 161 160 154
2.13135 -0.652671 3.46657 128 125 127
2.12924 -0.690284 3.46597 133 123 122
2.11095 -0.710549 3.444 124 103 94
2.11171 -0.731344 3.42448 150 129 120
2.79704 -0.510845 4.03313 44 44 48
2.12886 -0.689218 3.44417 150 140 139
2.11115 -0.710258 3.42454 148 130 121
2.11256 -0.732948 3.40924 175 162 159
2.10907 -0.390733 3.40422 97 79 69
2.1111 -0.672321 3.42517 129 125 125
2.10634 -0.761241 3.38895 175 135 114
2.11135 -0.609079 3.38432 103 98 98
2.12985 -0.651208 3.40609 125 122 125
2.13041 -0.690665 3.40407 142 128 124
2.13088 -0.730194 3.38771 136 114 109
2.14907 -0.689554 3.38722 171 168 174
2.1468 -0.725306 3.3883 153 144 144
2.05839 -0.700623 3.24503 161 162 176
1.7523 -0.369458 3.94491 132 125 118
2.15226 -0.630495 3.38501 91 104 111
1.66949 -0.668824 3.58654 51 60 70
2.15233 -0.649776 3.3857 119 126 132
2.93096 -0.672889 3.72554 232 171 99
2.46616 -0.691753 3.17111 23 20 22
2.11075 -0.628621 3.28526 230 232 239
2.22839 -0.168797 3.44382 143 122 98
2.16153 -0.430827 3.33422 50 30 29
2.19052 -0.311864 3.36873 77 72 69
2.15626 -0.513695 3.28757 175 173 177
2.23092 -0.13091 3.40548 179 149 115
2.22985 -0.231157 3.38443 147 124 101
2.17213 -0.512224 3.26986 191 188 190
2.23112 -0.291253 3.36599 115 106 100
2.23138 -0.351281 3.36615 118 109 105
2.55096 -0.653868 3.48564 203 211 228
2.22977 -0.508501 3.36462 163 159 160
2.13152 -0.666643 3.20496 226 229 241
2.12354 -0.684107 3.19625 228 233 248
2.1271 -0.688757 3.18591 224 230 245
2.1922 -0.489286 3.28491 133 129 127
2.13296 -0.670417 3.187 198 205 220
2.25015 -0.250843 3.36447 128 120 114
2.19208 -0.495648 3.26821 183 174 170
2.25131 -0.390684 3.34609 126 116 112
2.14367 -0.684061 3.18109 227 231 248
2.25347 -0.39094 3.32794 119 109 104
2.2536 -0.450222 3.32824 129 118 113
2.19345 -0.531157 3.25223 204 201 201
2.25166 -0.230511 3.32497 156 135 108
2.23124 -0.511443 3.2662 174 169 173
2.23337 -0.529405 3.26796 169 164 170
2.25065 -0.609594 3.30412 125 130 147
2.25305 -0.190897 3.30489 165 135 96
2.27379 -0.430746 3.30833 134 123 117
2.27238 -0.451409 3.30726 138 127 121
2.27146 -0.572672 3.30697 113 112 119
1.81013 -0.759485 3.04677 151 142 89
2.2745 -0.410887 3.30838 133 122 116
2.27157 -0.591313 3.30583 107 110 125
2.65055 -0.709919 3.6846 218 179 152
2.27291 -0.451317 3.28807 132 121 118
2.27308 -0.472695 3.28899 142 133 132
2.26892 -0.490393 3.28746 139 132 133
2.29185 -0.57134 3.30632 116 113 119
2.18434 -0.663864 3.15678 221 227 245
1.88743 -0.732503 2.78138 96 90 90
2.27232 -0.171447 3.26744 188 158 120
2.29259 -0.531018 3.28745 132 124 123
2.19309 -0.665343 3.14388 212 216 232
2.27271 -0.151182 3.26798 205 174 132
2.29016 -0.490818 3.26737 133 127 128
2.27068 -0.610954 3.2454 168 165 173
2.2901 -0.591643 3.26625 124 121 129
2.21003 -0.649832 3.14596 211 216 230
2.31159 -0.590688 3.26484 130 123 124
2.47535 -0.631312 4.38623 54 53 53
2.29149 -0.150415 3.24325 205 167 124
2.29094 -0.170225 3.24334 174 141 104
2.31373 -0.550785 3.26757 133 125 124
2.31113 -0.571577 3.26727 135 126 126
2.29115 -0.130542 3.24481 232 196 144
2.31284 -0.511648 3.24785 142 136 140
2.31103 -0.531056 3.24549 149 143 146
2.31062 -0.592303 3.24861 132 124 127
2.29809 -0.308188 3.23019 117 109 108
2.33144 -0.11109 3.28504 218 191 151
1.65309 -0.826132 2.79512 4 5 9
2.31163 -0.13081 3.22475 212 177 133
2.31332 -0.592804 3.22808 168 166 174
2.32846 -0.611564 3.22657 136 134 144
2.33177 -0.572327 3.22681 121 113 114
2.33102 -0.628506 3.22758 172 171 184
2.27022 -0.671752 3.14647 205 203 202
2.71259 -0.53178 4.16614 43 43 44
2.31147 -0.112433 3.22605 240 205 152
2.30957 -0.169506 3.20753 130 106 81
2.33488 -0.589959 3.20664 110 100 102
2.29075 -0.632247 3.18452 200 198 206
2.33216 -0.150575 3.20924 180 159 134
2.32921 -0.18768 3.20793 86 79 77
2.32325 -0.511512 3.20253 120 111 111
2.30974 -0.651967 3.1864 183 164 156
2.29086 -0.650882 3.16517 189 181 180
2.33026 -0.471286 3.18774 120 112 112
2.32974 -0.653617 3.20663 175 142 126
2.40663 -0.111787 3.28331 208 187 153
2.35277 -0.0976349 3.2316 244 210 152
2.32835 -0.129364 3.19394 135 108 85
2.3104 -0.671863 3.16552 209 158 122
1.63018 -0.470022 4.00507 104 102 101
2.35394 -0.0977985 3.21356 234 209 176
2.34506 -0.629768 3.19302 113 101 107
2.35047 -0.673466 3.18587 209 154 112
2.33157 -0.671471 3.18581 207 154 115
1.2839 -0.760767 3.42251 117 92 77
1.30536 -0.697876 3.53623 37 38 42
2.05377 -0.24006 3.8956 220 218 207
1.30619 -0.698471 3.5292 35 36 40
1.43325 -0.575676 3.77884 147 142 142
1.45524 -0.682065 3.6031 16 16 24
1.46979 -0.612431 3.60759 25 31 43
1.47238 -0.671641 3.60328 67 68 72
1.49016 -0.670067 3.60042 45 46 52
1.49175 -0.681211 3.59682 16 16 23
1.53083 -0.529385 3.78388 37 39 45
1.50703 -0.61277 3.60213 33 36 42
1.50931 -0.671374 3.59845 117 120 128
2.65065 -0.676387 3.76511 219 165 116
1.51218 -0.683784 3.59052 52 52 58
2.54572 -0.73462 3.70374 121 105 98
1.51216 -0.667056 3.58761 102 107 114
1.57337 -0.508815 3.90439 120 121 122
1.57102 -0.472908 3.92531 145 146 143
1.56941 -0.491016 3.90672 105 106 110
2.54872 -1.07096 3.28817 43 45 50
1.59256 -0.523112 3.92101 116 115 116
1.53263 -0.664965 3.72975 132 141 150
1.56974 -0.590907 3.78669 29 31 38
1.55098 -0.668419 3.58513 50 57 68
1.59151 -0.551602 3.78408 24 28 37
1.28576 -1.11042 3.31646 3 5 11
2.66953 -0.471054 4.26415 48 50 53
1.79118 -0.709309 3.24557 243 241 235
1.60864 -0.551146 3.78797 22 26 35
1.61089 -0.590319 3.78599 23 28 37
1.63059 -0.591171 3.78917 33 33 41
1.59021 -0.669672 3.56574 114 118 122
1.59193 -0.688926 3.56756 129 131 134
1.62821 -0.530749 3.80654 24 28 36
1.62833 -0.550768 3.80814 23 26 34
1.64786 -0.551523 3.80531 53 51 55
1.61042 -0.669005 3.56542 157 162 169
2.45128 -0.675178 3.9448 211 156 103
1.70414 -0.643839 3.86232 127 109 102
1.65074 -0.689113 3.54783 38 41 48
1.65479 -0.703043 3.54774 37 40 47
2.75095 -0.890355 4.03245 37 32 35
1.6639 -0.605984 3.5927 20 20 27
2.1174 -0.990496 2.93996 61 65 71
1.67175 -0.669396 3.56532 44 51 63
1.67021 -0.685364 3.54914 38 43 50
1.67217 -0.683623 3.56525 44 49 56
2.03084 -0.214805 3.56579 136 122 114
1.70259 -0.615538 3.62911 102 111 114
1.68987 -0.687257 3.54857 39 43 50
1.69132 -0.708014 3.54612 39 39 46
2.34044 -0.579399 3.51534 169 132 101
1.73111 -0.613147 3.61362 169 171 182
2.51055 -0.870893 3.26774 40 41 45
2.25134 -0.371168 3.40498 109 102 100
1.73095 -0.655043 3.57081 56 63 71
1.73063 -0.670214 3.56702 54 61 70
1.73281 -0.688376 3.56622 38 42 46
1.73137 -0.711126 3.564 37 39 46
1.72955 -0.713948 3.54805 41 41 49
2.80721 -0.650645 4.02756 38 35 35
2.08769 -0.909932 2.88454 57 61 69
1.79237 -0.732436 3.74894 117 133 126
1.78928 -0.610955 3.70388 105 123 126
1.75055 -0.651453 3.6047 119 108 107
1.75144 -0.671651 3.5847 48 54 61
2.67145 -0.706529 3.72598 208 152 107
2.16711 -0.685421 3.42772 219 220 225
1.77024 -0.653546 3.60461 90 83 80
1.77075 -0.673223 3.58368 39 45 52
1.57001 -0.35403 3.88747 166 188 185
1.77179 -0.691787 3.56763 80 70 64
1.77133 -0.734567 3.56525 126 95 75
1.83071 -0.709333 3.74519 67 60 59
1.79014 -0.672771 3.60464 43 48 53
1.77082 -0.793146 3.51147 36 38 44
1.77067 -0.808718 3.50551 52 54 62
1.4583 -0.33336 2.95365 44 49 56
1.87057 -0.83218 3.50567 96 92 95
1.84608 -0.683914 3.74236 69 83 83
1.8489 -0.68904 3.72538 74 78 76
1.81026 -0.714001 3.56607 139 104 75
1.8076 -0.751635 3.57206 102 78 62
1.7909 -0.8086 3.50361 46 47 55
2.49155 -0.705238 4.02626 187 135 90
2.06802 -0.611399 3.60342 49 43 44
2.15255 -0.769267 2.96082 94 94 101
1.85237 -0.731332 3.70711 33 31 34
1.81039 -0.771865 3.56513 98 78 66
1.79898 -0.772846 3.52418 75 60 54
1.83004 -0.609972 3.64358 129 137 130
1.86548 -0.685583 3.71753 66 78 80
1.95115 -0.634024 4.14418 166 155 152
1.86825 -0.726955 3.69939 39 33 35
1.82859 -0.793222 3.56771 98 72 60
1.81885 -0.783849 3.56358 123 91 73
1.81484 -0.783377 3.54144 95 78 69
1.81316 -0.792774 3.50681 145 110 89
2.45128 -0.729153 3.16097 92 89 89
1.8707 -0.684373 3.70706 39 45 46
1.83158 -0.767878 3.58259 128 96 70
1.83296 -0.810451 3.54565 101 82 73
1.81662 -0.808573 3.49196 107 84 73
2.33048 -0.591674 3.34506 107 107 111
1.75057 -0.799986 3.57089 55 56 60
1.88932 -0.665774 3.70509 24 28 33
1.85095 -0.753619 3.58895 83 61 52
1.85053 -0.765193 3.5845 98 73 55
1.83351 -0.808599 3.56337 88 71 64
1.82978 -0.808376 3.50635 135 106 88
1.79872 -0.658756 3.33839 26 33 41
1.87009 -0.683378 3.00485 95 110 104
1.89007 -0.689864 3.68245 59 65 63
1.85004 -0.751277 3.6024 104 74 56
1.85492 -0.825725 3.56371 101 81 72
1.85391 -0.828316 3.54496 123 95 82
1.83197 -0.826502 3.50273 73 75 81
1.83249 -0.831402 3.4848 112 96 89
1.71254 -1.00971 2.98397 9 11 18
1.67124 -0.69252 3.24467 152 157 163
1.92968 -0.232159 3.78647 152 149 144
1.86859 -0.828365 3.54638 70 60 59
1.87009 -0.828266 3.52565 71 65 66
1.84995 -0.834312 3.48734 158 127 107
1.89058 -0.770368 3.56753 75 55 44
1.87313 -0.818167 3.54706 56 55 59
2.67005 -0.790397 3.4059 107 108 112
2.11027 -0.571645 3.6848 118 107 103
1.90995 -0.632512 3.62538 91 90 95
2.93051 -0.731289 3.72494 208 156 111
1.92912 -0.749109 3.58465 119 85 75
1.92836 -0.776159 3.54577 86 63 50
1.92797 -0.784152 3.54068 18 20 30
1.98957 -0.23098 3.72416 145 137 133
2.07153 -0.21213 3.70471 134 132 129
1.94171 -0.77727 3.54397 71 55 47
1.95166 -0.776408 3.52949 23 25 35
1.99059 -0.690057 3.58576 83 71 64
1.99233 -0.71268 3.56679 74 59 51
1.96559 -0.783903 3.52467 97 77 65
1.9907 -0.769506 3.52387 55 50 50
1.99018 -0.770764 3.508 89 71 68
1.98979 -0.795609 3.48863 61 56 62
1.9895 -0.807888 3.48558 153 121 108
2.02777 -0.671722 3.54341 51 45 47
2.00866 -0.770141 3.50213 79 65 63
2.01191 -0.6316 3.5055 94 76 70
2.01304 -0.728064 3.50668 116 89 73
2.00509 -0.810743 3.47088 192 193 208
2.03192 -0.768484 3.48627 83 76 80
2.03073 -0.611568 3.46415 82 67 62
2.05004 -0.67286 3.50451 64 54 52
2.05082 -0.766818 3.46337 87 73 70
2.07055 -0.690123 3.50431 84 70 67
2.06914 -0.709619 3.5046 104 93 90
2.07211 -0.710311 3.48654 96 78 72
2.49107 -0.809778 3.22639 24 27 32
2.15252 -0.231557 3.68642 124 125 124
2.17065 -0.230888 3.70487 102 104 104
2.07054 -0.651216 3.4854 64 57 58
2.0724 -0.732549 3.46726 108 86 75
2.06716 -0.76998 3.44854 133 106 92
2.08973 -0.631378 3.48186 75 72 76
2.0923 -0.672441 3.48495 84 77 80
1.36771 -0.345786 3.01837 6 11 18
2.08856 -0.708216 3.48431 129 112 107
2.08959 -0.729458 3.46555 133 106 93
2.1995 -0.244631 3.72009 124 127 128
2.10994 -0.670752 3.48301 124 119 120
1.91162 -0.727836 3.54326 124 90 67
2.11102 -0.671023 3.46528 111 105 106
2.11033 -0.689201 3.46634 129 117 114
2.09164 -0.690103 3.46536 101 87 83
2.11186 -0.710886 3.4656 132 114 108
2.10365 -0.764193 3.43575 144 119 108
2.09836 -0.769702 3.42801 179 136 109
2.12975 -0.6901 3.42578 118 111 109
2.15043 -0.651394 3.42555 97 102 106
2.14893 -0.670662 3.42462 124 124 126
2.14787 -0.709715 3.42406 143 143 146
2.13228 -0.745702 3.40584 131 103 92
2.15155 -0.631186 3.40497 86 93 99
2.16502 -0.705698 3.41003 151 148 151
2.16984 -0.669829 3.38573 169 167 169
2.16807 -0.685657 3.38831 171 171 176
2.25079 -0.23111 3.48612 151 135 119
2.22897 -0.191493 3.46634 156 133 108
2.23131 -0.191069 3.44529 147 119 90
2.19114 -0.611568 3.34701 184 186 193
2.2444 -0.531432 3.45948 105 96 93
2.19135 -0.630347 3.34649 186 189 198
2.19161 -0.649739 3.34457 167 166 178
2.24993 -0.192502 3.44495 146 122 98
2.25212 -0.210608 3.4277 143 119 94
2.20904 -0.652093 3.34485 152 154 171
1.94899 -0.189804 3.68477 157 158 155
2.26805 -0.151797 3.48529 154 129 103
2.26773 -0.153084 3.44633 168 145 120
2.21161 -0.651502 3.32773 193 192 200
2.17394 -0.773695 3.26836 151 128 119
2.25305 -0.271239 3.4078 97 89 83
2.26966 -0.172634 3.42445 167 150 131
2.27127 -0.190328 3.40484 131 118 105
2.27027 -0.25074 3.40642 141 127 112
2.27064 -0.271344 3.40639 114 104 96
2.19005 -0.688874 3.26177 157 161 174
2.78727 -1.05038 4.05046 12 7 7
2.19172 -0.709331 3.26045 124 126 139
2.17814 -0.755744 3.24852 224 230 245
2.28808 -0.190779 3.34419 129 112 95
2.30835 -0.147561 3.46048 200 165 131
2.24916 -0.351467 3.36382 123 115 112
2.25025 -0.450746 3.36427 127 119 116
2.22905 -0.652817 3.32463 181 175 189
2.19301 -0.747853 3.24341 158 150 151
2.24924 -0.271132 3.38362 116 109 106
2.23077 -0.570481 3.30573 112 113 125
2.23169 -0.590542 3.3058 113 115 131
2.25147 -0.350595 3.34618 128 118 113
2.25125 -0.370899 3.34627 127 117 112
2.20906 -0.690828 3.26384 110 108 120
2.1947 -0.75264 3.23044 138 131 136
2.44849 -0.655866 3.48739 207 203 212
2.26946 -0.370831 3.34435 130 121 118
2.26954 -0.410609 3.34401 131 123 121
2.25288 -0.648624 3.30532 169 168 176
2.25452 -0.6653 3.30065 156 151 158
2.23226 -0.649415 3.28327 171 167 172
2.29082 -0.150728 3.3859 150 126 102
2.26995 -0.290856 3.34483 125 117 113
2.27205 -0.450702 3.32686 133 124 120
2.21324 -0.733104 3.22992 222 229 245
2.15192 -0.551982 3.38568 126 122 124
2.28925 -0.251745 3.34539 111 102 97
2.28903 -0.271253 3.34328 111 103 100
2.27158 -0.410745 3.32663 132 123 118
2.22953 -0.687393 3.24738 141 142 156
2.29273 -0.212185 3.36545 117 109 101
2.55113 -0.531508 4.30599 53 53 56
2.29024 -0.230726 3.34578 113 102 92
2.29049 -0.291132 3.34467 118 110 108
2.28864 -0.310231 3.34415 123 115 113
2.29056 -0.330981 3.32525 130 122 118
2.27312 -0.669368 3.28417 125 119 127
2.2513 -0.650427 3.26682 173 168 174
2.22851 -0.728541 3.22115 224 228 245
2.63081 -0.653931 3.58518 222 225 232
2.3303 -0.151763 3.38652 173 153 130
2.29035 -0.271021 3.32533 111 102 98
2.29046 -0.311968 3.3244 123 115 112
2.31463 -0.670709 3.4887 178 152 124
2.29031 -0.37076 3.32501 135 126 123
2.28922 -0.410882 3.32378 134 126 124
2.28983 -0.470999 3.32422 137 129 128
2.29169 -0.510851 3.30629 134 126 125
2.29118 -0.530618 3.30618 130 123 122
2.26979 -0.649518 3.2853 145 141 148
2.36585 -0.146559 3.42679 191 160 125
2.29179 -0.450752 3.30697 136 128 123
2.29192 -0.470267 3.30627 137 128 124
2.29149 -0.649211 3.2863 145 143 150
1.68202 -0.658079 2.83559 50 64 87
2.27053 -0.649943 3.26436 164 161 167
2.25041 -0.671006 3.24653 118 114 125
2.25229 -0.686942 3.24646 120 105 109
2.25105 -0.690623 3.22845 203 206 220
2.31249 -0.191921 3.34748 139 116 94
2.31063 -0.231497 3.32351 132 113 94
2.29166 -0.391374 3.30676 136 126 121
2.01162 -0.308863 3.64753 103 95 87
2.31244 -0.251213 3.3241 109 99 94
2.31064 -0.290606 3.30444 121 113 110
2.31009 -0.310544 3.30546 131 122 120
2.31104 -0.330872 3.30536 136 128 124
2.31043 -0.350744 3.30493 137 129 125
2.31021 -0.371328 3.30555 137 129 125
2.30971 -0.43054 3.30442 136 128 126
2.30962 -0.470971 3.30409 138 131 129
2.33283 -0.211705 3.32443 106 96 85
2.31137 -0.530855 3.28641 135 128 127
2.31206 -0.591256 3.28725 126 125 130
2.30969 -0.648947 3.28336 129 125 131
2.27192 -0.672062 3.22545 156 138 136
2.27168 -0.687899 3.2275 167 137 128
2.35254 -0.15219 3.34602 178 154 128
2.3308 -0.192894 3.32566 115 101 87
2.31177 -0.47073 3.28635 139 130 127
2.33045 -0.331003 3.30433 129 121 118
2.3111 -0.350488 3.28553 140 130 124
2.66828 -0.306809 4.26176 68 72 76
2.31138 -0.37101 3.28595 139 130 123
2.329 -0.649445 3.28078 147 144 151
2.2906 -0.667824 3.22151 161 130 120
2.33018 -0.311397 3.28538 139 131 128
2.29149 -0.670154 3.20476 165 134 121
2.29338 -0.686574 3.20765 180 148 134
2.3311 -0.451035 3.26657 142 133 129
2.33214 -0.49067 3.26597 142 135 133
2.33196 -0.530799 3.26624 140 133 132
2.3321 -0.550495 3.26594 137 130 130
2.33156 -0.570609 3.26526 134 126 126
2.33089 -0.631435 3.26554 140 136 141
2.29064 -0.706554 3.19974 225 230 246
2.33102 -0.350981 3.26523 140 132 126
2.34914 -0.630724 3.26493 151 148 154
2.31062 -0.67159 3.20541 181 146 127
2.2906 -0.726071 3.18718 209 213 227
2.37057 -0.171888 3.30486 129 114 100
2.36934 -0.188721 3.30339 135 120 104
2.34953 -0.330585 3.26521 142 134 130
2.34998 -0.350924 3.26531 142 134 131
1.73072 -0.968288 2.97381 16 18 26
2.35029 -0.371285 3.26519 143 135 132
2.34983 -0.390787 3.26493 143 135 132
2.34916 -0.411031 3.26412 142 134 131
2.34978 -0.550633 3.26577 136 129 130
2.35026 -0.590631 3.26418 135 130 133
2.35033 -0.610592 3.26438 142 137 143
1.79128 -0.672757 2.84558 212 222 233
2.35057 -0.650678 3.24494 140 132 135
2.31158 -0.687773 3.20457 195 159 138
2.34959 -0.450863 3.26483 142 135 133
2.13332 -0.210407 3.72685 114 113 112
2.35136 -0.490571 3.24517 144 137 136
2.35168 -0.510497 3.24505 144 137 135
2.35108 -0.550926 3.24608 141 133 132
2.35075 -0.610886 3.24627 137 130 132
1.31692 -1.12486 3.23595 16 17 22
2.33058 -0.652455 3.22622 156 130 122
2.3512 -0.41065 3.24553 147 137 130
2.35142 -0.430849 3.24648 144 135 129
2.35107 -0.630576 3.24524 137 129 132
2.35107 -0.669346 3.22435 148 122 110
2.33107 -0.669696 3.20517 190 146 116
2.30915 -0.724346 3.18185 171 173 183
2.37036 -0.630786 3.24428 137 131 135
2.37012 -0.650057 3.24332 138 131 134
2.3309 -0.690654 3.18652 206 164 132
2.37162 -0.107826 3.26406 238 203 145
2.38996 -0.210667 3.28533 129 117 103
2.37216 -0.271026 3.26569 126 120 116
2.3698 -0.41062 3.24511 142 134 131
2.3533 -0.491441 3.22747 147 138 136
2.37132 -0.590974 3.22554 141 133 133
2.37033 -0.590758 3.24404 137 132 135
2.07729 -0.549688 3.66815 90 85 83
2.37022 -0.689976 3.24497 143 133 132
2.33138 -0.709252 3.18609 203 160 129
2.01525 -0.176507 3.74506 191 189 183
2.44464 -0.131051 3.34067 146 122 104
2.38978 -0.230885 3.26424 160 155 149
2.37102 -0.450695 3.22516 146 137 134
2.35094 -0.707813 3.20568 193 149 119
2.33347 -0.726799 3.16228 211 165 131
2.4113 -0.170781 3.28335 151 139 124
2.38953 -0.210299 3.26467 131 122 113
2.37104 -0.430624 3.22474 146 137 132
2.37155 -0.63066 3.22587 140 131 132
2.38949 -0.670312 3.22554 140 130 130
2.39056 -0.69048 3.24207 139 130 129
2.35352 -0.722189 3.19637 205 187 186
1.45992 -1.18585 3.07084 10 10 17
1.91045 -0.683417 4.03978 127 97 78
1.17961 -0.922757 3.53769 21 23 31
1.20651 -0.830364 3.5216 17 23 33
1.29072 -0.589909 3.70837 107 106 103
1.32699 -0.61106 3.72052 107 111 118
1.35358 -0.609895 3.73467 48 56 70
1.38929 -0.638163 3.56911 12 14 22
1.41076 -0.550749 3.7621 52 58 68
1.41064 -0.629011 3.72514 38 42 51
1.41147 -0.631261 3.56585 50 50 60
1.43034 -0.571773 3.76412 43 49 58
1.42974 -0.590412 3.76337 53 58 66
1.41428 -0.589358 3.60966 99 74 81
1.45712 -0.561209 3.80179 80 78 74
1.47269 -0.561341 3.80054 30 34 41
1.44824 -0.662631 3.55606 14 14 21
1.49104 -0.488999 3.94642 157 164 171
1.49206 -0.504884 3.92561 141 147 144
1.45701 -0.661708 3.55318 15 17 25
1.50507 -0.489925 3.95364 174 181 194
1.46957 -0.6313 3.56076 72 75 81
1.46925 -0.669377 3.54546 16 18 25
1.50849 -0.50414 3.93884 92 100 103
1.47468 -0.684881 3.52788 152 151 158
1.52747 -0.492398 3.9484 176 174 157
1.52751 -0.523334 3.92697 144 145 138
2.0881 -0.611865 3.44392 146 113 87
1.49189 -0.66531 3.53829 14 14 21
1.55114 -0.489501 4.00412 183 185 179
1.53317 -0.502666 3.96677 149 150 142
1.95179 -0.729735 2.82449 214 171 145
1.49192 -0.667598 3.50646 166 167 170
2.95191 -0.76651 3.64565 137 121 109
1.49149 -0.684538 3.50641 147 147 153
1.55211 -0.491297 3.98738 146 148 143
1.53404 -0.571353 3.80088 30 31 38
1.56746 -0.452665 4.00359 144 144 135
1.56992 -0.47419 4.02738 149 150 147
1.5724 -0.490794 4.0046 153 157 160
1.53003 -0.590157 3.78226 31 32 37
1.51466 -0.662753 3.5436 89 93 101
1.51083 -0.668658 3.5051 123 126 132
1.50992 -0.68691 3.48375 120 121 126
1.59148 -0.472035 4.02479 119 122 121
1.59081 -0.488392 4.00464 125 126 130
1.5313 -0.665216 3.54511 95 100 108
1.53252 -0.665505 3.5249 161 166 174
2.3735 -0.928767 3.22499 82 79 79
1.61169 -0.471043 4.00412 110 109 110
1.60824 -0.489821 4.00419 112 113 115
1.6114 -0.509456 4.0048 98 98 99
1.60023 -0.514461 3.99034 183 192 209
1.57885 -0.592022 3.81834 19 22 32
1.53094 -0.68711 3.46525 138 138 144
1.61384 -0.548452 3.98618 61 59 57
1.55027 -0.669404 3.50537 180 183 192
1.53226 -0.66765 3.46493 195 196 202
1.6357 -0.472395 3.98685 96 95 92
1.62923 -0.531317 3.98561 79 79 78
1.55144 -0.670048 3.48551 183 183 191
1.55238 -0.669728 3.46569 190 191 198
1.54914 -0.687495 3.46596 104 104 112
1.76741 -0.56883 3.72015 107 94 85
1.63299 -0.550667 4.00464 76 74 73
1.57018 -0.668851 3.524 169 171 176
1.46586 -0.502597 3.10458 24 31 40
1.65439 -0.51172 4.0068 93 92 91
1.65252 -0.550809 4.00449 79 77 76
1.57117 -0.667767 3.50496 181 184 193
1.59072 -0.668992 3.50476 143 146 150
1.5919 -0.690931 3.50661 139 135 135
1.67332 -0.567718 3.9037 90 74 64
1.61057 -0.669437 3.5048 90 95 101
1.60605 -0.706238 3.49902 6 7 11
1.61144 -0.668576 3.48539 148 144 145
1.61079 -0.690729 3.48607 119 98 82
1.63141 -0.66978 3.48539 76 71 70
2.21183 -0.212609 3.66469 115 117 117
1.63039 -0.690334 3.46526 99 94 92
1.63585 -0.704585 3.46791 124 96 74
1.65171 -0.669385 3.46595 72 65 63
1.65162 -0.687522 3.46616 84 69 60
1.67038 -0.68572 3.46835 68 60 58
1.69127 -0.715867 2.81039 36 45 65
1.79196 -0.232275 3.96289 161 146 145
1.69074 -0.6678 3.46505 45 52 62
1.69012 -0.669371 3.44539 53 56 63
1.70993 -0.689615 3.44469 54 50 51
1.70605 -0.722666 3.43691 16 16 24
2.63089 -0.293104 4.22588 61 67 73
1.79157 -0.390972 3.72574 160 132 96
1.7304 -0.670498 3.46472 46 54 63
1.73022 -0.671762 3.44751 49 55 64
1.72998 -0.709924 3.44301 24 25 32
1.81136 -0.310844 3.72536 122 108 94
1.79023 -0.650546 3.64577 105 126 123
1.75006 -0.691855 3.44658 39 41 46
2.31236 -0.632577 3.46619 131 157 92
1.72775 -0.71893 3.43066 68 60 60
1.80785 -0.630196 3.64237 115 135 132
1.80985 -0.64948 3.64301 114 139 135
1.75275 -0.711755 3.44213 15 17 25
1.77042 -0.671175 3.46461 40 48 57
1.77015 -0.689966 3.4644 40 43 49
1.77085 -0.703866 3.45697 16 16 25
1.76647 -0.720764 3.44048 17 19 27
1.77064 -0.731154 3.42608 44 46 54
2.13192 -0.667712 3.8688 197 147 104
1.83161 -0.672547 3.60676 58 63 64
1.79096 -0.692156 3.48568 37 40 45
1.77095 -0.728005 3.44359 52 54 61
1.81269 -0.709214 3.50404 13 17 27
1.81171 -0.731089 3.50809 91 73 67
2.45102 -0.950106 3.29013 30 30 32
1.85055 -0.67191 3.6058 53 55 57
1.83135 -0.708375 3.5469 128 96 72
1.81076 -0.714286 3.5269 137 103 80
2.06941 -0.850376 2.92431 65 70 82
2.63234 -0.390374 4.16689 32 32 38
1.83076 -0.732561 3.50804 112 86 71
1.83176 -0.749617 3.50141 109 83 69
1.7907 -0.550524 3.68472 159 117 86
1.87065 -0.671178 3.58565 45 42 45
1.85119 -0.709093 3.50816 47 41 42
1.84807 -0.744921 3.50051 146 110 86
2.14922 -0.450805 3.44334 48 42 45
1.89199 -0.53156 3.58671 103 82 69
1.89334 -0.610451 3.56549 104 102 105
1.57056 -0.311205 2.96559 30 33 39
1.89025 -0.672139 3.56501 59 50 48
1.89136 -0.691066 3.56483 76 61 55
1.87014 -0.731014 3.50525 164 122 90
1.87013 -0.730393 3.48821 55 49 48
1.60504 -0.395897 3.76569 167 159 144
1.86918 -0.309023 3.53815 72 70 79
1.89097 -0.708408 3.50476 86 65 50
2.73162 -0.73114 3.74679 182 143 110
1.90972 -0.630904 3.54668 55 50 54
2.28396 -0.894854 3.07455 65 72 88
1.91147 -0.652543 3.54605 47 39 43
1.8905 -0.706946 3.48629 97 74 57
2.17126 -0.209267 3.58332 143 142 140
1.91049 -0.707144 3.48505 83 63 50
1.49036 -0.472512 3.94943 166 174 186
2.01105 -0.230555 3.78471 155 153 151
1.93243 -0.510826 3.54714 63 57 55
1.90944 -0.73089 3.46381 130 99 73
1.69111 -0.705171 3.26688 175 177 181
1.91372 -0.733512 3.44786 65 59 58
1.93066 -0.687063 3.50551 91 76 68
1.94945 -0.611666 3.52585 64 51 47
1.9488 -0.568238 3.50446 121 92 75
1.9315 -0.737567 3.42469 59 56 61
1.93412 -0.746323 3.42689 30 34 47
1.97067 -0.631245 3.50587 48 39 37
1.9515 -0.673735 3.46747 116 88 69
2.02984 -0.212391 3.6444 148 147 145
2.05115 -0.210351 3.64491 136 135 131
1.22759 -1.11365 3.15631 24 28 33
1.99088 -0.689558 3.44492 65 60 61
1.98886 -0.708646 3.4429 74 65 64
1.96978 -0.778706 3.39115 38 48 68
1.99278 -0.728535 3.4076 60 60 68
2.01143 -0.510859 3.46588 66 59 57
2.01223 -0.655349 3.44796 94 73 67
1.98657 -0.785205 3.38237 122 125 138
2.03331 -0.668498 3.42414 107 85 73
2.01115 -0.764898 3.38119 173 162 159
2.00554 -0.781413 3.37641 144 157 183
1.93029 -0.689993 3.56744 94 77 65
2.02948 -0.632595 3.42693 68 56 57
2.01103 -0.767141 3.35387 206 229 252
2.13074 -0.209612 3.62678 127 127 125
2.04963 -0.609839 3.42738 113 87 74
2.0513 -0.650301 3.42473 95 77 71
2.03142 -0.750739 3.38237 179 180 189
2.05137 -0.671405 3.40526 123 93 79
2.07013 -0.611311 3.42588 98 80 73
2.05512 -0.629368 3.40331 115 85 72
2.05177 -0.650485 3.40703 115 88 74
2.07213 -0.631811 3.40459 101 80 71
2.07087 -0.611208 3.40784 121 93 78
2.07182 -0.670753 3.3851 136 104 89
2.07221 -0.728459 3.38619 200 182 176
2.0525 -0.732144 3.36915 177 168 171
2.07115 -0.58994 3.38584 92 75 69
2.05422 -0.753104 3.35227 198 222 249
2.21049 -0.229019 3.6651 103 105 106
2.07007 -0.690321 3.36961 183 162 157
2.07136 -0.75198 3.34793 170 182 202
2.07204 -0.728408 3.34837 193 183 189
2.13244 -0.68451 4.22414 187 141 98
2.09164 -0.730966 3.34552 191 174 171
2.27341 -0.25016 3.65938 162 159 154
2.25158 -0.247434 3.64522 76 79 82
2.09136 -0.744997 3.33351 220 223 237
2.26954 -0.248698 3.64505 100 101 102
2.13039 -0.470684 3.36453 240 211 132
2.13008 -0.631457 3.34525 151 141 142
2.2293 -0.728933 3.26359 156 122 107
2.28453 -0.250052 3.62462 136 135 130
2.28924 -0.232677 3.60714 95 96 97
2.31057 -0.218543 3.61677 34 40 48
2.29138 -0.231122 3.56704 93 95 97
2.1315 -0.627986 3.30481 215 219 228
2.13353 -0.571917 3.28495 160 128 113
2.27554 -0.175172 3.52529 128 107 85
2.27368 -0.194197 3.52713 103 95 86
2.12565 -0.551596 3.2683 103 91 93
2.12992 -0.572115 3.26528 186 168 168
2.26611 -0.211601 3.48034 141 125 108
2.13057 -0.557828 3.25337 167 166 174
2.26407 -0.228818 3.47782 150 136 123
2.23024 -0.351538 3.40401 106 100 100
2.22878 -0.410832 3.40468 113 105 104
2.15851 -0.493018 3.28748 164 164 164
2.27066 -0.250129 3.46522 165 150 134
2.151 -0.576649 3.24543 229 232 243
2.15063 -0.589509 3.24433 229 233 247
1.85491 -0.637405 3.06079 181 201 194
2.28912 -0.171112 3.46631 140 112 85
2.28511 -0.1905 3.46333 153 128 103
2.15105 -0.61504 3.20669 219 224 236
1.4917 -0.636379 3.36792 211 214 226
1.83288 -0.572939 3.70604 74 67 71
2.17254 -0.537717 3.23051 202 204 216
2.16721 -0.575802 3.22717 177 177 190
2.28664 -1.13004 3.10893 72 75 83
2.13588 -0.692044 3.17239 222 229 245
2.30538 -0.16701 3.43974 162 133 103
2.14771 -0.689448 3.16343 221 228 244
2.37051 -0.674782 3.16643 209 156 110
2.19143 -0.570833 3.22998 173 169 177
2.16992 -0.617386 3.18692 219 224 235
2.22966 -0.490586 3.26628 181 172 173
2.15571 -0.693666 3.15306 221 228 244
2.19059 -0.615767 3.18728 224 232 243
2.40803 -0.704192 4.3776 94 91 83
2.17208 -0.612222 3.16621 226 232 243
2.16354 -0.703584 3.14024 218 225 242
2.19229 -0.614983 3.1655 224 231 243
2.17142 -0.648539 3.1458 219 226 245
2.29295 -0.450543 3.28755 145 133 127
2.18179 -0.683959 3.13693 217 224 240
2.18024 -0.693477 3.13417 219 225 241
2.7705 -0.590914 4.12442 56 53 53
2.28901 -0.2308 3.30355 146 120 95
2.29099 -0.310796 3.3059 125 116 109
2.08895 -0.41031 3.42267 78 65 62
2.19304 -0.667155 3.12786 218 221 234
1.45847 -1.10202 2.99813 29 32 39
2.19121 -0.691988 3.12694 219 225 239
1.95211 -0.615661 3.00471 127 130 131
2.32951 -0.170809 3.324 150 123 98
2.53065 -0.672957 4.18571 179 135 92
2.33131 -0.210906 3.30759 106 95 86
2.35011 -0.709367 3.18625 204 156 120
2.21081 -0.649481 3.1261 215 221 231
2.20182 -0.70259 3.11629 223 228 239
1.89673 -0.543188 3.49517 49 47 48
2.24872 -0.595634 3.16393 209 213 229
2.31103 -0.270558 3.26648 121 110 102
2.24912 -0.597061 3.14672 220 224 241
2.23063 -0.649154 3.12513 211 215 222
2.33085 -0.271029 3.26574 138 129 122
2.55288 -0.930745 3.30232 39 42 48
2.31433 -0.37004 3.24725 101 93 93
2.23101 -0.670872 3.10617 203 203 205
2.26519 -0.596167 3.15935 217 221 236
2.38574 -0.150071 3.32221 174 153 131
2.33305 -0.310981 3.24747 140 129 122
2.44646 -0.418102 3.25819 187 173 159
2.33191 -0.428294 3.22643 152 144 143
2.20092 -0.613725 3.71573 124 121 114
2.2375 -0.725226 3.10054 224 201 186
2.38885 -0.170467 3.30425 138 123 107
2.3334 -0.37085 3.22917 100 96 98
2.27603 -0.615931 3.12539 220 212 209
2.2505 -0.691165 3.10462 218 198 186
2.07317 -0.549887 3.24339 169 133 111
2.25237 -0.707569 3.10375 216 180 156
2.33412 -0.34997 3.22891 98 94 95
2.33084 -0.430884 3.20542 120 111 111
2.35341 -0.331061 3.22654 142 133 127
2.33329 -0.40825 3.20978 120 112 111
2.31398 -0.596861 3.17457 109 100 102
2.29035 -0.652688 3.12572 218 196 188
2.27189 -0.67006 3.12478 219 215 216
2.27133 -0.691549 3.10436 213 166 133
2.35472 -0.37099 3.21286 136 128 124
2.35546 -0.389875 3.21388 139 136 135
2.32342 -0.531464 3.17886 114 106 106
2.29208 -0.671773 3.12751 215 173 145
2.32588 -0.657688 3.16809 189 144 115
2.28984 -0.692058 3.10614 214 164 126
1.87032 -0.671247 3.6256 40 45 49
1.13674 -0.67513 3.36614 67 69 70
1.13822 -0.673468 3.46914 118 104 97
1.17378 -0.677623 3.20751 14 24 47
1.19844 -0.656361 3.20552 14 19 31
1.19107 -0.561987 3.37672 143 117 109
1.21804 -0.656634 3.17019 10 14 22
1.21377 -0.59961 3.26257 170 123 87
1.21399 -0.592321 3.18792 15 19 27
1.23099 -0.670672 3.12733 11 12 19
1.23148 -0.598135 3.23164 122 96 79
1.23661 -0.610452 3.17336 10 11 19
1.24656 -0.459681 3.41181 166 147 147
1.24974 -0.59089 3.146 13 15 23
1.26066 -0.63588 3.13115 8 10 17
1.27348 -0.474975 3.16746 55 59 63
1.65089 -0.704362 3.1063 225 226 223
1.29261 -0.571519 3.0871 6 7 14
1.37221 -0.57202 3.67172 107 114 118
1.36906 -0.495438 3.73854 109 125 133
1.35495 -0.35231 3.10683 30 37 48
1.37164 -0.610669 2.98834 8 8 11
2.27599 -0.550552 3.38764 122 113 111
1.37357 -0.331421 3.08558 25 33 42
1.37542 -0.593554 2.99189 14 13 14
1.47078 -0.550558 3.70867 32 37 47
1.39318 -0.311294 3.06621 31 39 48
1.48956 -0.530428 3.71056 35 40 48
1.42243 -0.325966 3.13612 33 38 45
1.51251 -0.529521 3.70545 39 44 53
1.41874 -0.580661 2.97208 48 41 35
1.58767 -0.569624 3.70796 31 38 47
1.63451 -0.52972 3.72266 21 21 33
1.62919 -0.594574 3.73103 32 34 40
1.48908 -0.370987 2.98389 14 16 22
2.41083 -0.651681 3.46731 195 195 204
1.50768 -0.327751 2.98177 19 21 25
1.53349 -0.306725 3.02215 42 50 57
1.52938 -0.308724 3.0036 32 38 45
1.5083 -0.562256 2.90553 34 33 30
2.68746 -0.711696 4.18485 35 31 31
1.53324 -0.327769 2.98136 25 30 36
1.52993 -0.34824 2.9611 23 27 32
1.52863 -0.369412 2.96217 14 16 21
1.76953 -0.23195 3.98456 148 171 176
1.53499 -0.553009 2.91181 59 62 66
1.5509 -0.308044 3.002 28 32 38
2.20856 -0.370702 3.42024 94 89 88
1.7866 -0.230708 3.94557 148 157 166
1.55044 -0.309176 2.98402 27 31 37
1.55093 -0.330029 2.96279 24 28 34
1.54959 -0.329516 2.9822 22 28 35
1.54857 -0.411576 2.94141 20 24 31
1.55258 -0.553652 2.9086 57 57 61
1.5694 -0.308588 3.00256 35 39 45
1.57154 -0.329256 2.98327 27 30 37
1.79063 -0.310343 3.74453 196 154 107
1.79064 -0.33077 3.7448 215 166 109
1.57228 -0.348476 2.9632 22 26 33
1.57044 -0.411372 2.92499 26 32 40
2.64561 -0.758267 3.61443 247 236 236
1.93051 -0.736704 2.86985 220 227 245
1.81139 -0.33062 3.72496 115 101 85
1.59149 -0.349252 2.96228 37 38 40
1.88882 -0.330425 3.68425 66 64 66
2.98998 -0.675701 3.68547 227 168 101
1.85126 -0.271326 3.76808 94 90 89
1.83182 -0.470774 3.66609 51 49 51
1.86919 -0.270269 3.78494 108 103 100
1.84999 -0.270751 3.7246 75 75 77
2.49412 -1.17545 3.22769 64 69 80
1.79515 -0.636882 3.20998 171 172 175
1.83072 -0.690324 2.84528 204 210 224
1.95339 -0.747975 3.06221 215 194 189
1.83077 -0.72702 3.56424 117 85 62
1.83001 -0.726254 3.54463 160 119 86
1.9057 -0.263767 3.80416 174 158 154
1.83095 -0.752029 3.49207 95 75 71
1.9104 -0.269706 3.76334 119 110 108
1.86993 -0.549883 3.60523 161 121 92
1.83344 -0.806287 3.47483 81 80 84
1.82973 -0.814253 3.48619 177 134 106
1.75099 -0.669984 3.24538 229 235 239
1.84138 -0.804085 3.47018 97 89 81
1.7755 -0.553383 3.75188 42 37 45
2.00884 -1.21029 2.84431 77 83 91
1.91031 -0.270822 3.66529 68 67 69
1.85944 -0.7514 3.47357 16 19 29
1.97924 -0.272007 3.83001 154 156 159
1.87152 -0.732369 3.46701 37 39 45
1.92906 -0.270616 3.66404 73 72 73
1.9114 -0.530984 3.56624 104 83 70
1.87108 -0.707209 3.4662 71 61 56
1.89261 -0.13109 3.60618 170 191 189
2.02261 -0.269738 3.88035 103 103 101
1.88059 -0.741392 3.45362 17 21 34
1.73328 -0.695483 2.83081 119 128 151
1.91098 -0.709733 3.50679 97 72 54
1.89166 -0.733715 3.44574 38 40 48
1.92982 -0.69213 3.54613 92 73 63
1.99149 -0.268536 3.70354 144 138 134
2.01771 -0.270867 3.76661 189 183 181
1.95203 -0.371179 3.56663 59 55 55
1.95112 -0.6908 3.52634 103 77 63
1.91127 -0.707511 3.42547 61 58 58
1.90921 -0.743698 3.41988 36 40 52
1.95078 -0.530631 3.52533 108 88 72
1.97059 -0.691299 3.54611 95 74 61
1.91164 -0.744732 3.40567 53 57 66
1.97169 -0.692159 3.52616 71 58 52
2.07849 -0.280221 3.81313 97 90 90
1.9318 -0.707535 3.4056 81 75 73
1.95131 -0.672846 3.52664 94 74 64
2.01078 -0.269673 3.62217 101 95 95
1.99187 -0.69009 3.50608 74 61 55
1.99092 -0.689364 3.48479 65 56 54
1.97248 -0.688138 3.48339 80 66 61
1.95042 -0.709982 3.40457 109 92 81
1.95026 -0.709212 3.38536 78 76 80
1.95498 -0.765177 3.37713 37 46 68
2.05722 -0.270217 3.64858 133 125 118
2.01112 -0.689703 3.50346 77 65 61
2.02875 -0.630689 3.50438 76 64 62
2.12932 -0.269134 3.71993 80 82 83
1.98004 -0.729496 3.37397 35 44 59
2.79493 -1.00996 4.10371 25 21 24
2.12618 -0.292421 3.72853 92 92 91
2.0719 -0.651508 3.54606 60 57 59
2.07043 -0.67238 3.52386 70 64 66
1.99487 -0.726232 3.36739 91 85 87
1.99369 -0.771889 3.36561 205 189 184
2.0721 -0.269789 3.58433 119 111 104
2.08976 -0.269815 3.5803 125 118 112
2.04917 -0.710522 3.4464 86 75 75
1.98818 -0.758011 3.34475 171 184 207
2.11031 -0.271227 3.60735 155 150 144
2.05187 -0.730768 3.44631 123 96 81
1.96463 -0.722311 3.26702 108 116 123
2.05007 -0.451118 3.44519 77 66 61
2.01225 -0.727627 3.34636 193 155 128
1.54917 -0.511245 2.84608 17 22 29
1.98343 -0.714272 3.27321 135 203 249
2.09046 -0.730299 3.44561 149 121 105
2.09112 -0.63237 3.46726 64 60 63
2.16953 -0.286285 3.60675 170 167 164
2.08944 -0.610587 3.42388 105 92 85
2.11026 -0.690122 3.44733 142 124 116
1.99129 -0.711849 3.23418 180 213 252
1.91071 -0.630624 3.6643 71 71 75
2.21879 -0.288589 3.68706 58 61 67
2.13268 -0.27062 3.52769 128 116 106
2.19394 -0.293727 3.62674 172 170 163
2.11079 -0.650747 3.42558 136 122 119
2.08809 -0.74745 3.35967 163 131 117
2.1818 -0.277763 3.55664 159 118 84
2.01231 -0.695633 3.18974 198 202 216
2.42749 -0.190881 3.2849 190 159 126
2.02147 -0.682555 3.19707 221 225 244
2.25185 -0.291411 3.62579 57 60 65
2.03221 -0.691663 3.18491 212 217 230
2.12925 -0.410272 3.38362 228 178 113
2.77135 -0.431309 4.10639 43 45 50
2.67001 -0.411346 4.28614 59 65 72
2.29267 -0.290368 3.64165 174 169 161
2.25306 -0.292748 3.59085 66 66 70
2.20943 -0.271992 3.5052 178 157 133
2.14912 -0.291009 3.405 113 93 73
2.05135 -0.627591 3.20535 227 233 241
2.68933 -0.413138 4.26595 51 54 61
2.2708 -0.291726 3.58826 45 48 53
2.14919 -0.389888 3.38435 187 139 94
2.16978 -0.350122 3.38345 162 119 78
2.06549 -0.681415 3.17668 163 166 186
1.58462 -0.640521 3.41146 83 94 110
2.72807 -0.411283 4.26401 110 112 111
2.06518 -0.702292 3.1603 218 222 239
2.70956 -0.391189 4.22387 49 53 58
2.21133 -0.291528 3.40346 88 81 76
1.58967 -0.65131 2.79095 51 59 72
1.9309 -0.671237 3.22573 139 153 168
2.2125 -0.131667 3.40567 167 140 106
2.22922 -0.250184 3.42208 112 98 86
2.11147 -0.613843 3.18629 171 174 180
2.0932 -0.691697 3.14751 222 226 243
2.74448 -0.298138 4.20436 160 148 134
2.2307 -0.252015 3.40637 111 101 93
2.19048 -0.59089 3.30523 170 167 176
2.54325 -0.993941 3.27042 58 64 75
2.19107 -0.611386 3.30601 177 178 188
2.11082 -0.64827 3.16561 221 228 240
2.74936 -0.313959 4.20784 77 79 80
2.0848 -0.46983 3.72087 34 35 38
2.13212 -0.589377 3.20439 241 245 254
2.10969 -0.669279 3.14458 221 228 244
2.21242 -0.58965 3.28469 151 147 162
2.17132 -0.613973 3.24534 210 215 228
2.10552 -0.687337 3.13802 221 226 243
2.21124 -0.611158 3.28348 175 173 182
2.13054 -0.647122 3.16475 227 234 247
2.25194 -0.171598 3.36678 142 121 100
2.15088 -0.598067 3.16684 161 164 172
2.67245 -1.07024 3.40462 46 47 49
2.13678 -0.694696 3.11341 214 221 241
1.99577 -0.767983 3.54666 101 80 70
2.14241 -0.681198 3.11774 219 226 242
2.27115 -0.710353 3.08462 204 159 123
2.28943 -0.211103 3.34537 120 104 91
2.17058 -0.630798 3.14512 227 233 244
2.15259 -0.670445 3.10664 217 224 240
2.2725 -0.611713 3.26689 155 158 171
2.17121 -0.647666 3.12487 218 226 239
1.67312 -0.569891 3.77066 44 35 35
2.30909 -0.350821 3.32353 132 123 119
2.19121 -0.594793 3.14238 219 223 240
2.1906 -0.630825 3.12668 221 228 240
2.17122 -0.649049 3.10598 213 220 234
2.16315 -0.703982 3.09742 215 219 236
2.18948 -0.731017 3.04676 206 161 132
2.30968 -0.171032 3.32543 147 120 94
2.27006 -0.630641 3.22601 177 178 188
2.19061 -0.649622 3.12553 214 222 234
2.19064 -0.649618 3.10592 214 220 232
2.07861 -0.568096 3.66973 102 95 91
2.21176 -0.597821 3.13672 210 214 231
2.21163 -0.615739 3.12784 217 222 236
2.19191 -0.669615 3.10404 219 223 230
2.32973 -0.150404 3.32483 167 140 113
2.32943 -0.311467 3.30383 127 119 117
2.31372 -0.531005 3.26821 137 128 126
2.28909 -0.632109 3.22781 159 161 174
2.21086 -0.631386 3.12618 217 223 236
1.70931 -0.698415 3.20531 238 239 237
2.32992 -0.291138 3.3045 124 117 115
2.20927 -0.632483 3.10674 212 217 227
2.21114 -0.650098 3.10521 210 214 224
2.21082 -0.670978 3.10484 203 205 209
2.21162 -0.691278 3.08584 211 204 201
2.34928 -0.291243 3.28535 128 121 118
2.3093 -0.631217 3.22642 160 157 168
2.23076 -0.651541 3.1062 209 210 215
2.2103 -0.729835 3.08099 212 200 198
2.20914 -0.747879 3.07838 224 221 232
2.33347 -0.490543 3.24739 143 135 135
2.23286 -0.770364 3.07955 183 146 118
2.37012 -0.249233 3.28389 134 129 124
2.36903 -0.291607 3.28334 111 106 103
2.3693 -0.33115 3.2839 116 110 107
2.39035 -0.23136 3.30489 121 109 99
2.37104 -0.330667 3.26578 135 127 124
2.37089 -0.350733 3.26506 134 126 124
2.3698 -0.370393 3.26546 134 126 123
2.39011 -0.211524 3.30533 174 157 134
2.38718 -0.248313 3.2864 150 146 141
2.38771 -0.271165 3.27943 122 116 112
2.35562 -0.570914 3.2102 120 110 112
2.3891 -0.311164 3.26353 124 119 116
2.40992 -0.230302 3.28604 118 109 102
2.4103 -0.250201 3.28486 149 142 137
2.38954 -0.270517 3.26454 122 117 113
2.87247 -0.70877 3.58449 163 127 95
