ply
format ascii 1.0
comment Created by Open3D
element vertex 177
property double x
property double y
property double z
property uchar red
property uchar green
property uchar blue
end_header
1.00933 -1.24807 0.246943 13 7 5
0.970091 -1.23168 0.28476 24 16 14
0.993818 -1.19485 0.263725 64 49 45
1.01 -1.22719 0.282802 34 21 17
0.990028 -1.17555 0.262435 44 0 3
0.988688 -1.22886 0.366743 34 29 30
0.985695 -1.24945 0.30554 36 28 27
0.952557 -1.17259 0.264645 47 17 17
0.930557 -1.20991 0.291357 32 23 18
0.953514 -1.20856 0.267632 36 25 20
1.01272 -1.23581 0.361447 48 41 44
0.981489 -1.19567 0.339282 8 5 3
0.96633 -1.20675 0.242556 32 1 2
0.989639 -1.24861 0.36663 48 41 44
1.00878 -1.2087 0.303344 48 23 20
0.990823 -1.23354 0.284472 37 29 26
0.953926 -1.19339 0.302997 18 11 9
0.993509 -1.21156 0.30655 31 23 20
0.969564 -1.19261 0.261555 37 5 5
0.963045 -1.21864 0.204256 44 34 25
1.00443 -1.19805 0.328373 28 22 20
0.988204 -1.21115 0.248375 45 17 16
1.02982 -1.22923 0.246723 71 59 54
0.958691 -1.25393 0.381037 50 44 42
1.00812 -1.21117 0.285627 61 50 44
0.910519 -1.22929 0.304723 39 30 26
1.00266 -1.24972 0.285443 12 5 3
0.949398 -1.2314 0.305864 19 12 10
1.00713 -1.20525 0.324176 36 31 29
0.985198 -1.2455 0.323877 33 27 28
0.959427 -1.2351 0.220092 39 29 23
0.971992 -1.2522 0.403759 42 35 38
0.950401 -1.25045 0.290998 22 15 13
1.01058 -1.24927 0.226201 49 47 49
0.969703 -1.23054 0.267049 29 18 15
0.964773 -1.26898 0.366934 42 38 35
0.991752 -1.21085 0.284988 55 46 41
1.02639 -1.23269 0.221802 37 27 24
0.970264 -1.17981 0.263414 46 3 7
0.973803 -1.22483 0.241659 23 12 8
0.966983 -1.24717 0.269793 18 8 7
0.969909 -1.25194 0.303848 20 13 11
0.968137 -1.25098 0.365587 36 31 29
1.00974 -1.24451 0.371596 51 44 47
0.959654 -1.21613 0.348497 24 20 20
0.993551 -1.23233 0.265792 28 20 16
1.00704 -1.24522 0.26489 29 23 19
0.910135 -1.20983 0.301162 34 26 22
1.00387 -1.19501 0.361787 16 7 4
0.950911 -1.23062 0.2885 28 19 17
1.00471 -1.19624 0.239407 63 33 34
0.997511 -1.25357 0.242394 20 13 10
0.988155 -1.25133 0.385293 67 61 63
0.919666 -1.2321 0.350099 11 1 2
0.971173 -1.21125 0.324632 30 24 22
0.93409 -1.25117 0.292401 35 26 23
0.972798 -1.21093 0.345511 29 25 24
0.96466 -1.2671 0.344441 32 27 20
0.952926 -1.21212 0.285316 26 15 12
0.998399 -1.21218 0.2283 51 29 28
1.0105 -1.21589 0.379111 25 18 20
0.971203 -1.19272 0.246319 51 24 24
1.03035 -1.22362 0.283159 60 35 31
0.999661 -1.22184 0.196311 32 4 4
0.953632 -1.16722 0.318376 55 47 41
0.969292 -1.19627 0.29152 16 10 7
0.96769 -1.21837 0.224537 44 30 24
0.993026 -1.22998 0.397017 18 12 15
1.00294 -1.2008 0.315048 24 20 20
0.988543 -1.21084 0.328708 24 20 19
1.00979 -1.20833 0.367244 49 44 44
0.970853 -1.25093 0.324961 17 11 10
1.02353 -1.22625 0.349882 46 39 42
0.934195 -1.23271 0.288674 28 19 17
0.969274 -1.23066 0.226626 30 21 13
0.986284 -1.19812 0.303107 64 53 48
1.01171 -1.23082 0.264137 51 41 36
0.936882 -1.25967 0.380535 10 8 9
0.989198 -1.19334 0.246742 45 17 17
0.940077 -1.19973 0.294776 29 22 18
0.968532 -1.25092 0.287072 27 18 16
0.931672 -1.23119 0.303584 30 22 19
0.948651 -1.16711 0.304658 39 31 26
0.959633 -1.1973 0.227532 52 27 26
0.970885 -1.22982 0.34612 30 24 25
0.970412 -1.23214 0.384845 40 35 37
0.951554 -1.23156 0.365529 22 17 19
0.976619 -1.21795 0.382047 17 11 13
1.00738 -1.22163 0.307002 33 29 29
0.95408 -1.27029 0.386227 51 46 42
1.00445 -1.22444 0.324656 36 31 33
0.988138 -1.19729 0.330188 25 19 18
0.927595 -1.19734 0.30123 28 20 16
1.00562 -1.21707 0.256799 15 8 2
1.01176 -1.22852 0.249121 45 35 30
1.01264 -1.22787 0.224543 51 48 50
1.00284 -1.2063 0.224339 60 54 58
0.99253 -1.22825 0.227089 42 27 26
0.994578 -1.25007 0.230514 29 23 23
0.97399 -1.25088 0.22367 43 35 29
0.991523 -1.21318 0.36507 32 26 27
0.953945 -1.23331 0.345423 17 12 10
0.9401 -1.21893 0.324449 8 4 2
0.986643 -1.20535 0.268498 38 29 25
0.952271 -1.19021 0.285461 20 10 7
0.953758 -1.21038 0.303477 16 10 8
1.02674 -1.25169 0.250841 27 18 14
0.964396 -1.2309 0.210176 35 24 17
1.03008 -1.23168 0.262881 72 63 56
0.99328 -1.22897 0.245786 38 26 20
0.979136 -1.24129 0.240469 27 19 13
1.03025 -1.21593 0.245049 70 46 46
0.933587 -1.21363 0.301623 27 18 15
0.968541 -1.2097 0.265928 33 17 15
0.972103 -1.21344 0.284731 15 9 7
1.02894 -1.21602 0.378833 41 37 37
1.01022 -1.23084 0.386169 44 37 38
0.991413 -1.23245 0.384356 46 40 41
0.969074 -1.25022 0.385836 43 38 38
1.00768 -1.2023 0.348738 41 37 37
0.973146 -1.23162 0.365833 32 28 27
0.989727 -1.20972 0.34695 27 23 22
1.00501 -1.19543 0.342174 18 10 9
0.953367 -1.25202 0.366328 43 37 35
0.968 -1.25003 0.344648 35 29 28
0.952711 -1.2539 0.345045 25 18 13
0.968937 -1.23026 0.326362 24 18 16
0.954368 -1.25159 0.32549 24 18 12
0.972959 -1.21147 0.305593 25 17 14
0.968002 -1.22982 0.308968 20 14 12
0.964486 -1.17387 0.326533 30 17 13
0.947867 -1.25154 0.30544 25 17 15
0.965216 -1.19476 0.307385 19 12 9
0.918264 -1.19749 0.293656 36 26 20
0.916815 -1.20689 0.292512 37 27 21
0.968411 -1.19069 0.32342 25 19 16
0.989951 -1.25098 0.284792 17 11 9
0.995375 -1.24996 0.266812 21 13 11
1.00931 -1.22715 0.346054 55 49 51
0.99434 -1.23445 0.34645 39 35 37
0.983617 -1.24458 0.345883 41 37 39
0.995505 -1.23326 0.324012 34 30 32
0.990369 -1.23022 0.305973 27 19 18
0.968705 -1.27311 0.325624 28 21 13
0.981185 -1.19925 0.293497 47 37 32
0.921898 -1.21944 0.361633 18 10 10
0.930173 -1.23309 0.363915 17 9 8
0.931263 -1.22979 0.348968 26 19 12
0.932115 -1.25279 0.366247 15 8 5
0.921873 -1.23059 0.377152 31 29 1
0.951869 -1.23139 0.324298 9 4 4
0.951555 -1.21333 0.320294 10 4 4
0.963548 -1.17778 0.310275 18 11 7
0.951587 -1.17668 0.286118 43 14 16
0.933353 -1.21598 0.342286 13 8 7
0.936255 -1.23626 0.328236 6 3 2
0.952913 -1.19234 0.266385 34 13 10
0.957742 -1.23409 0.262394 47 35 31
0.989856 -1.21277 0.384476 19 12 14
0.98398 -1.21825 0.400724 16 9 12
0.98777 -1.19395 0.36673 22 16 16
0.972609 -1.2317 0.400859 28 21 24
0.976514 -1.17641 0.361137 9 4 4
0.977496 -1.19314 0.363795 20 15 15
0.97118 -1.21101 0.366883 29 25 25
0.96731 -1.16955 0.347148 11 7 6
0.972908 -1.19169 0.347177 23 20 18
0.959452 -1.23351 0.377946 6 3 4
0.959671 -1.21929 0.363344 14 10 10
1.01037 -1.21305 0.241908 56 24 25
0.95899 -1.25379 0.402711 44 38 40
1.00359 -1.19848 0.289561 82 76 67
1.00396 -1.19526 0.270409 85 76 71
0.968319 -1.19682 0.22312 40 14 14
0.992973 -1.19649 0.228706 65 57 52
0.95813 -1.197 0.244557 35 6 6
0.957004 -1.20605 0.251298 22 11 6
