ply
format ascii 1.0
comment Created by Open3D
element vertex 1355
property double x
property double y
property double z
property uchar red
property uchar green
property uchar blue
end_header
1.47134 -1.27281 0.286282 54 48 42
1.13283 -1.2128 0.10459 90 86 80
1.06851 -1.19033 0.0274347 92 89 79
1.21934 -1.16489 0.214485 95 85 80
1.15035 -1.11346 0.143602 79 75 70
1.25284 -1.19113 0.24523 69 55 40
1.04152 -1.25813 0.134354 47 25 25
1.2706 -1.1112 0.123284 128 128 123
1.41003 -1.33116 0.325969 41 34 28
1.38491 -1.13794 0.270407 70 57 46
1.23192 -1.17281 0.207614 60 52 45
1.15157 -1.21332 0.162035 93 89 84
1.1123 -1.17152 0.105334 78 73 66
1.26701 -1.07011 0.148536 106 104 101
1.0322 -1.17188 0.0444827 92 90 84
1.11528 -1.20863 0.139512 67 61 54
1.35422 -1.25372 0.360293 47 42 39
1.43448 -1.25102 0.273153 72 60 44
1.41097 -1.31098 0.310664 41 35 30
1.21778 -1.18795 0.343566 47 33 27
1.33069 -1.21305 0.285323 76 63 46
1.13001 -1.19196 0.105832 90 86 80
1.11783 -1.14075 0.138292 100 95 85
1.271 -1.21109 0.324857 71 57 41
1.25059 -1.07457 0.160105 105 103 100
1.43244 -1.21082 0.244893 68 59 50
1.16619 -1.25102 0.0829879 83 78 73
1.15045 -1.19008 0.147296 88 82 76
1.19254 -1.16901 0.126631 88 83 76
1.3782 -1.21553 0.337733 71 60 46
1.07137 -1.13687 0.0768072 85 86 90
1.19358 -1.19215 0.182096 102 98 93
1.15563 -1.23468 0.178902 114 112 106
1.42966 -1.21339 0.304853 66 56 46
1.40573 -1.21348 0.319642 54 47 43
1.37118 -1.19068 0.22599 34 28 25
1.25017 -1.13268 0.163912 112 110 105
1.20806 -1.05425 0.150148 82 80 74
1.03146 -1.19267 0.024224 86 82 76
1.10977 -1.19099 0.0661855 84 78 72
1.09747 -1.1952 0.0996628 89 85 80
1.24736 -1.17131 0.127799 111 105 101
0.978242 -1.23443 0.0803807 7 7 5
1.2169 -1.19251 0.32281 58 44 35
0.952913 -1.25882 -0.043346 3 5 5
1.29048 -1.15133 0.145437 96 94 90
1.35084 -1.21237 0.322588 70 58 45
0.969711 -1.22932 0.0319432 14 18 22
1.00927 -1.28996 -0.0523028 15 18 21
1.10437 -1.1912 0.0309347 80 75 69
1.42936 -1.25126 0.304729 58 49 40
1.05012 -1.15517 0.0457154 92 88 82
1.16999 -1.15126 0.106177 88 82 75
1.31271 -1.21044 0.166011 60 51 42
0.971397 -1.33196 -0.0553855 25 26 28
1.39012 -1.1934 0.302879 75 63 49
1.41133 -1.31096 0.324717 46 39 32
1.43184 -1.2091 0.203875 61 54 48
1.27261 -1.16933 0.318883 74 60 46
1.05037 -1.1714 0.0285819 100 98 88
1.4705 -1.18854 0.225052 81 72 61
0.989667 -1.26971 0.0434129 29 26 24
0.987211 -1.21261 0.0439466 10 13 16
1.01118 -1.29019 0.0501159 63 47 44
1.25031 -1.14713 0.286375 51 43 39
1.4089 -1.15335 0.284757 67 54 42
1.28972 -1.17245 0.320555 80 65 47
1.03248 -1.25417 0.164028 51 37 37
1.28979 -1.15495 0.205476 45 38 36
0.993608 -1.23818 0.133382 103 86 78
1.03552 -1.15148 0.0572307 89 85 77
1.30918 -1.11446 0.285735 45 39 34
1.25097 -1.16848 0.111213 95 91 88
1.19441 -1.13269 0.178356 83 78 74
1.25363 -1.11517 0.10429 120 119 115
1.4701 -1.22422 0.16909 59 53 47
1.22767 -1.16951 0.348372 50 38 31
1.31068 -1.14972 0.246469 42 38 33
1.36991 -1.2723 0.338372 61 50 41
0.989052 -1.3098 0.0251754 38 35 34
1.25151 -1.11101 0.167766 107 106 103
1.01031 -1.29131 -0.032169 36 35 33
1.26912 -1.18909 0.144628 107 102 95
1.1315 -1.11189 0.104979 61 60 59
1.12842 -1.17122 0.106978 94 89 83
1.35126 -1.21131 0.186059 49 44 38
1.39047 -1.27139 0.32318 58 48 38
0.969854 -1.31024 -0.0729616 10 13 16
1.25104 -1.23098 0.205495 65 51 34
1.22885 -1.19248 0.325204 48 36 27
1.19467 -1.09108 0.13078 67 64 59
1.21261 -1.15695 0.324278 46 36 30
1.1658 -1.16864 0.0724329 106 104 101
1.01067 -1.21549 0.0420116 55 57 59
1.4663 -1.18939 0.190812 66 59 49
1.34983 -1.22936 0.306231 73 61 45
1.44643 -1.23218 0.326828 52 45 41
1.36983 -1.18797 0.266827 65 56 44
1.01324 -1.25036 0.045478 55 40 45
1.31039 -1.21061 0.104907 103 99 93
1.34334 -1.21073 0.345158 74 60 46
1.03178 -1.23296 0.00435945 83 78 72
1.22876 -1.152 0.126923 104 98 92
1.45234 -1.20999 0.22567 71 62 53
1.04975 -1.26932 0.0271876 74 61 57
1.00939 -1.23542 0.148729 51 23 25
1.3505 -1.15366 0.28629 35 31 28
1.09002 -1.26882 0.0467178 82 77 69
1.13381 -1.23191 0.104787 87 84 78
1.44939 -1.21115 0.28367 67 58 48
1.24907 -1.25057 0.16703 68 58 44
1.2322 -1.13056 0.109102 103 101 97
1.1703 -1.09257 0.131094 52 48 44
0.99682 -1.27886 0.0332904 42 41 38
1.19008 -1.27037 0.206076 110 108 103
1.35213 -1.1718 0.204985 49 43 37
1.032 -1.21169 -0.0136662 93 91 85
1.01156 -1.23701 0.0981879 60 40 40
1.05451 -1.19013 0.0832174 103 103 103
1.33214 -1.1918 0.146311 54 46 43
1.22938 -1.21033 0.186496 93 87 82
1.21043 -1.19109 0.125871 102 96 88
1.24914 -1.0606 0.155825 74 75 73
1.44983 -1.29128 0.306387 50 43 37
1.37067 -1.24967 0.308841 67 56 43
1.09453 -1.17125 0.0842608 82 78 74
1.15181 -1.25287 0.0655268 75 70 65
1.01037 -1.19571 0.00986963 34 32 29
1.01078 -1.23186 0.0837651 74 42 40
1.15082 -1.25008 0.0873879 77 72 66
1.45004 -1.17388 0.207481 75 68 60
1.1503 -1.19063 0.0864912 85 80 75
1.35126 -1.20937 0.226647 52 44 38
1.35322 -1.30384 0.314999 65 54 39
1.45164 -1.2709 0.304268 55 47 40
0.989977 -1.22352 0.0136245 2 4 4
1.43574 -1.2135 0.165152 56 50 46
1.2665 -1.11742 0.229158 80 78 79
1.25022 -1.15053 0.167527 106 104 100
1.24868 -1.23126 0.186636 79 69 56
1.32879 -1.15215 0.302172 45 38 31
1.44718 -1.1768 0.295714 84 70 55
1.20843 -1.20367 0.267368 53 42 33
1.35168 -1.20887 0.165451 38 32 26
1.24981 -1.21069 0.124655 103 97 94
1.15023 -1.14795 0.103962 80 75 68
0.990052 -1.29133 -0.0527698 7 10 13
1.29031 -1.17138 0.224493 41 35 29
1.17151 -1.15091 0.146201 97 92 85
1.37126 -1.15488 0.208655 48 42 36
1.33972 -1.20044 0.340712 82 66 50
1.17359 -1.13301 0.142191 102 98 91
1.46873 -1.28956 0.286988 51 45 40
1.41103 -1.18846 0.266256 73 63 51
1.32987 -1.20984 0.324695 74 61 45
1.30702 -1.17201 0.127711 74 71 65
1.22631 -1.26736 0.111231 109 105 98
1.13282 -1.19117 0.145451 84 79 73
1.33117 -1.19542 0.108529 68 63 58
1.26946 -1.22976 0.286633 64 50 35
1.13145 -1.15279 0.0663726 85 81 76
1.45005 -1.20609 0.205954 66 58 49
1.25389 -1.15604 0.181361 110 107 102
1.02161 -1.28928 -0.0566393 2 1 1
1.20998 -1.07183 0.14698 65 63 58
1.35034 -1.23115 0.324199 74 60 45
1.37081 -1.25066 0.323755 69 57 43
1.20992 -1.22891 0.126672 99 95 89
1.21194 -1.27198 0.184756 84 79 74
1.22909 -1.22865 0.284607 46 35 24
1.29056 -1.13416 0.24672 41 35 28
1.19346 -1.1096 0.16561 102 98 92
1.12971 -1.21211 0.0861673 80 76 71
1.2526 -1.19118 0.126154 103 100 97
1.15271 -1.23438 0.0536324 82 76 70
1.30799 -1.17467 0.143145 56 48 46
1.07215 -1.27191 0.0238655 78 75 67
1.31072 -1.17086 0.206034 34 25 19
1.25705 -1.13398 0.269633 38 35 34
1.44967 -1.17846 0.281764 85 71 58
1.07172 -1.29089 0.0849509 67 60 55
1.23228 -1.0938 0.128421 95 93 90
1.23277 -1.25167 0.185038 69 61 52
1.40582 -1.16677 0.323827 81 66 53
1.05211 -1.25744 -0.0218497 84 81 73
1.27136 -1.19293 0.205185 64 53 37
1.2718 -1.13238 0.268771 39 36 34
1.26986 -1.23024 0.22688 71 55 37
1.35255 -1.17627 0.169071 50 45 39
1.20982 -1.19135 0.166583 116 111 106
1.108 -1.24983 0.109476 81 79 74
1.25415 -1.12823 0.0911151 125 124 120
1.4278 -1.27295 0.322244 52 44 36
1.03084 -1.24893 0.00799881 66 52 51
0.972598 -1.29422 0.0232166 18 17 16
1.01366 -1.27289 0.00646864 59 46 44
1.0515 -1.2303 0.0628099 97 95 89
1.1918 -1.23231 0.28572 79 68 57
0.990548 -1.27151 -0.0741867 10 14 17
1.00897 -1.25259 0.0855362 70 54 56
1.32867 -1.19455 0.13165 47 38 35
1.44873 -1.25171 0.302133 57 49 41
1.23103 -1.19055 0.223309 54 43 32
1.31368 -1.13872 0.257248 54 45 34
1.07169 -1.29095 0.12445 65 44 43
1.15908 -1.26932 0.19793 111 109 106
1.05059 -1.17 0.0476224 91 88 80
1.01082 -1.28718 0.12484 49 40 36
1.43987 -1.1967 0.167417 110 101 90
1.33286 -1.15572 0.193642 35 34 25
1.4683 -1.21241 0.282172 73 63 52
1.13144 -1.17225 0.0839043 87 82 76
1.1283 -1.13794 0.0717794 94 91 89
1.13364 -1.2534 0.164694 103 102 98
1.27086 -1.14985 0.127569 129 128 122
1.28941 -1.2106 0.227975 76 62 46
0.956132 -1.25577 0.0596537 34 35 38
1.45463 -1.22489 0.248676 64 56 47
1.17241 -1.17129 0.164119 91 86 80
1.2724 -1.19142 0.226931 65 52 39
1.06948 -1.26941 0.0465337 82 78 70
0.954153 -1.28996 -0.00706484 8 6 6
0.986794 -1.30591 -0.0683128 14 19 23
1.33015 -1.1894 0.205388 39 33 27
1.26968 -1.17243 0.244828 65 54 41
1.02935 -1.29101 0.167136 46 38 35
1.4478 -1.19046 0.300936 80 66 53
1.41295 -1.27174 0.307455 52 44 37
1.19103 -1.13264 0.144804 93 88 81
1.23017 -1.14744 0.269048 56 45 36
1.1723 -1.23122 0.182729 116 114 108
1.28828 -1.11343 0.123593 120 120 116
1.21536 -1.20955 0.23112 45 34 27
1.19072 -1.23263 0.20133 108 105 99
1.19729 -1.19645 0.299265 41 33 27
1.25057 -1.1917 0.166517 102 96 89
1.15119 -1.17174 0.145313 94 90 84
1.23105 -1.22902 0.12845 103 98 94
1.41103 -1.2101 0.285081 68 58 47
1.24552 -1.24993 0.14763 77 71 64
1.44723 -1.17585 0.187955 69 62 56
1.29381 -1.24575 0.192551 83 65 44
1.29117 -1.17046 0.185392 49 39 36
1.31011 -1.18898 0.146383 47 38 36
1.09519 -1.25259 0.124412 69 66 59
1.4117 -1.20829 0.187307 39 35 34
1.05286 -1.25019 0.00932543 91 89 83
1.39142 -1.26919 0.307555 57 48 39
0.959672 -1.27779 0.0858554 57 54 53
1.27087 -1.17166 0.204413 59 51 40
1.22906 -1.17284 0.186414 88 81 78
1.07246 -1.17042 0.0468766 93 88 80
1.11042 -1.19084 0.0832053 88 85 80
1.21335 -1.17015 0.327909 61 47 36
1.41099 -1.30798 0.346412 45 38 33
0.991968 -1.28937 -0.0348939 3 4 4
1.16931 -1.17084 0.0880185 86 81 75
1.37051 -1.21045 0.288621 72 61 47
1.01259 -1.25101 -0.0521777 22 26 31
1.39113 -1.2303 0.307409 67 56 43
1.45317 -1.21291 0.244575 68 60 51
1.03462 -1.29285 0.0452768 54 27 28
1.02253 -1.30105 0.0103362 117 94 86
1.38867 -1.21382 0.146978 58 52 46
1.0275 -1.22934 0.188871 56 42 43
1.4497 -1.20955 0.30653 66 56 46
1.30694 -1.23016 0.226716 72 60 45
1.44983 -1.19088 0.282097 80 68 54
1.2918 -1.17162 0.125349 126 123 118
0.951687 -1.3131 -0.0770148 9 12 14
1.09225 -1.25272 0.107027 81 77 71
1.1882 -1.23003 0.108024 83 79 74
1.41218 -1.22593 0.14552 59 53 44
1.2683 -1.15144 0.140015 124 124 119
1.08208 -1.20344 0.148979 56 50 46
1.01594 -1.2722 0.0279889 80 55 52
1.21456 -1.19504 0.284622 50 39 29
1.00996 -1.28726 0.0687808 67 52 47
1.4299 -1.23306 0.32385 59 49 41
0.987308 -1.27656 -0.0127755 1 2 2
1.29058 -1.15163 0.127333 120 120 115
1.21267 -1.21358 0.205459 74 67 62
1.00754 -1.20618 -0.0121438 20 26 33
1.19469 -1.21441 0.199477 114 110 104
1.38891 -1.15993 0.32443 71 61 52
1.27152 -1.1924 0.320358 70 57 42
1.27107 -1.21131 0.246911 70 55 38
1.10955 -1.17094 0.0652019 80 76 71
1.36627 -1.13271 0.281746 25 18 17
1.37559 -1.2224 0.169708 65 57 50
1.07162 -1.2917 0.143459 56 37 39
1.44854 -1.23318 0.302126 65 55 45
1.21054 -1.17045 0.182439 113 106 102
1.36956 -1.13976 0.266473 14 7 7
1.23092 -1.15551 0.226226 76 72 66
1.29113 -1.20497 0.128425 85 78 69
1.38938 -1.29128 0.344719 49 42 35
1.10479 -1.17047 0.0326406 97 94 86
1.37169 -1.1744 0.266417 62 55 45
1.11159 -1.25118 0.125248 79 76 68
1.21231 -1.18789 0.110527 96 91 84
1.31101 -1.17038 0.22559 28 23 17
1.2383 -1.11589 0.197258 89 89 87
1.04863 -1.25574 0.167007 55 40 42
0.989507 -1.25044 0.0850538 72 67 65
1.25043 -1.19121 0.225642 66 53 37
0.954722 -1.2715 -0.0462913 22 28 33
1.41048 -1.21191 0.303535 68 58 46
1.21248 -1.23165 0.205666 71 64 57
1.26996 -1.23088 0.207531 69 57 41
1.05018 -1.27224 0.0842775 72 60 60
1.34982 -1.19408 0.167448 61 56 49
1.04952 -1.25026 0.207987 55 42 44
1.43053 -1.22521 0.147994 39 36 36
1.25222 -1.17375 0.245443 56 45 34
1.19861 -1.19764 0.266642 44 37 32
1.04901 -1.29365 0.165729 44 34 29
1.03059 -1.25242 0.0628461 65 49 49
1.09124 -1.13154 0.0804776 78 74 72
1.43051 -1.29019 0.306828 48 41 35
1.21374 -1.13234 0.183583 82 73 72
1.28405 -1.08853 0.125771 116 116 114
1.27201 -1.14913 0.107519 109 108 105
1.19634 -1.1314 0.163805 103 99 93
1.0707 -1.24898 0.102338 85 83 79
1.45202 -1.33044 0.308419 43 38 33
1.43581 -1.22064 0.133755 19 19 17
1.08679 -1.25069 0.0257432 88 84 75
1.14955 -1.13067 0.107693 78 73 68
1.41156 -1.20946 0.267177 71 61 49
1.27266 -1.19439 0.184791 67 57 43
1.17116 -1.24992 0.200357 128 127 124
1.07309 -1.19147 0.0644381 88 85 78
1.15293 -1.11229 0.123951 78 74 69
1.35835 -1.22094 0.1825 35 30 18
1.29043 -1.21246 0.20601 73 60 43
1.28929 -1.20583 0.145253 67 59 48
1.24764 -1.26656 0.167468 65 53 38
1.47058 -1.18997 0.246229 78 69 57
1.36852 -1.22231 0.24673 79 67 50
1.13185 -1.13035 0.103067 77 71 66
1.13048 -1.13039 0.124545 84 81 80
0.987776 -1.29273 0.126209 46 39 35
1.24867 -1.16922 0.344007 66 53 42
1.13092 -1.14958 0.104708 87 81 74
1.39013 -1.17179 0.323802 74 61 52
1.11564 -1.22914 0.142108 72 68 63
1.37134 -1.21429 0.144074 71 66 59
1.17309 -1.23398 0.196707 118 116 112
1.44996 -1.15895 0.275827 95 85 71
0.990916 -1.2511 0.0659791 48 48 48
1.2528 -1.13419 0.279361 27 25 24
1.07114 -1.21258 0.0836759 97 96 93
1.04967 -1.23061 0.00434526 89 86 79
1.47067 -1.23005 0.26834 60 54 47
1.26939 -1.10733 0.143489 142 142 137
1.32738 -1.22185 0.274362 83 70 49
1.30972 -1.18873 0.287397 71 57 42
1.18784 -1.24822 0.110723 83 79 73
1.31097 -1.1732 0.285633 69 57 43
1.41125 -1.15576 0.266104 76 65 51
1.01138 -1.16914 0.0578872 96 93 86
1.21862 -1.19158 0.228337 46 36 29
1.40684 -1.2897 0.34744 45 38 34
1.41076 -1.21194 0.207267 47 43 39
1.17372 -1.23234 0.121372 86 81 74
0.994087 -1.23495 0.184727 44 23 20
1.42889 -1.17339 0.281401 79 68 54
1.02915 -1.29007 0.0633756 57 20 19
1.15002 -1.17123 0.0689371 84 80 78
1.34773 -1.22544 0.287853 86 70 50
1.04591 -1.18964 -0.0170266 93 89 90
1.41118 -1.15736 0.319535 77 65 55
1.25219 -1.17097 0.286668 58 46 33
1.43151 -1.20861 0.269274 68 59 49
1.35155 -1.17297 0.245124 38 32 27
1.25279 -1.23265 0.225001 64 50 32
1.13247 -1.21196 0.146371 85 81 75
1.33047 -1.24906 0.310738 79 65 46
1.23091 -1.13613 0.282763 48 40 33
1.2481 -1.12609 0.238221 78 76 75
1.25152 -1.11184 0.127671 125 124 121
1.28032 -1.13999 0.244576 55 43 33
1.08883 -1.19016 0.146817 72 69 65
1.39145 -1.17399 0.246746 64 57 49
1.34563 -1.2213 0.203527 68 58 44
1.03173 -1.23105 0.044827 81 74 71
1.20826 -1.20947 0.111953 100 96 89
1.21041 -1.17102 0.143761 93 87 83
1.03384 -1.31212 0.0487297 54 25 27
1.08999 -1.13686 0.0491501 94 93 91
1.40848 -1.27167 0.321045 54 46 37
1.4513 -1.20944 0.26696 67 59 50
1.22965 -1.13206 0.163439 110 105 101
0.972357 -1.3104 -0.0394625 5 6 6
1.43091 -1.22217 0.250413 76 65 53
1.06721 -1.21004 0.130099 74 70 67
1.31385 -1.20757 0.125355 81 73 68
1.15262 -1.21215 0.104734 84 79 72
1.09173 -1.23338 0.104434 87 84 78
1.25044 -1.21071 0.244608 66 53 36
0.99295 -1.23051 0.0447049 24 26 28
1.46785 -1.27195 0.301043 55 49 42
1.0308 -1.2683 0.184142 40 26 20
1.09079 -1.27159 0.106017 79 76 71
1.39646 -1.18289 0.336508 73 59 48
1.02494 -1.28509 -0.00978147 71 49 48
1.17352 -1.2331 0.149783 131 130 127
1.05233 -1.31047 0.0652081 63 41 42
1.4299 -1.32969 0.323565 44 37 31
1.33005 -1.11523 0.270786 58 52 48
1.42989 -1.19597 0.188925 49 45 38
0.963476 -1.25633 -0.047248 21 27 34
1.29074 -1.15323 0.305137 59 52 42
1.31753 -1.11321 0.269683 67 63 58
1.05037 -1.22882 -0.0143967 97 95 92
1.10538 -1.21079 0.0263932 78 75 77
1.38857 -1.22397 0.252926 80 65 49
1.41052 -1.19171 0.285614 74 63 50
1.47928 -1.24892 0.251102 64 54 44
1.39003 -1.25099 0.322436 61 51 41
1.3305 -1.17254 0.303138 69 57 44
1.27171 -1.18878 0.127326 102 98 93
1.20848 -1.1889 0.246456 58 51 45
1.29057 -1.18951 0.205181 48 38 28
1.39101 -1.15827 0.20206 47 42 36
1.03002 -1.21165 0.0454424 87 84 78
1.15133 -1.09428 0.16935 87 85 81
1.44998 -1.19086 0.206827 72 62 51
1.45266 -1.27014 0.287393 53 46 40
1.0688 -1.21125 0.0465403 90 87 78
1.21821 -1.21109 0.244506 45 34 25
1.22876 -1.19159 0.245746 48 36 27
1.0551 -1.27618 0.145589 43 15 16
1.27178 -1.15172 0.263379 59 51 42
1.26878 -1.22725 0.169108 62 51 37
1.1693 -1.19098 0.0861364 91 85 79
0.990959 -1.29151 0.102094 47 39 34
1.20953 -1.15253 0.182286 101 92 90
1.27023 -1.17281 0.225953 54 45 36
1.37041 -1.19105 0.304468 76 63 48
1.3502 -1.15229 0.26556 26 24 24
1.45138 -1.22996 0.142635 75 69 61
1.00939 -1.27124 -0.0332964 24 26 28
1.01108 -1.23147 0.20417 50 31 31
1.39104 -1.18849 0.243993 48 42 36
1.05128 -1.23101 0.0442751 92 89 80
1.33145 -1.20834 0.145762 37 26 22
1.27339 -1.1119 0.277808 39 37 36
1.41004 -1.23141 0.30494 63 53 42
1.29195 -1.17041 0.107246 115 113 108
1.43076 -1.21021 0.287132 68 58 48
1.45089 -1.21316 0.166179 63 55 48
1.15491 -1.16963 0.159693 75 70 64
1.06069 -1.32585 0.0308415 46 26 21
1.22976 -1.13079 0.236841 61 58 58
1.24943 -1.21206 0.164432 97 90 82
1.31067 -1.15163 0.30282 74 64 52
0.991534 -1.31257 -0.0548186 8 12 14
1.38903 -1.27125 0.338973 54 45 38
1.02795 -1.21459 -0.0357636 65 64 61
0.980176 -1.29024 -0.0332067 5 6 5
1.15497 -1.15119 0.160505 82 77 69
1.20929 -1.20799 0.28632 58 47 37
1.0698 -1.13835 0.109798 96 92 89
1.03027 -1.24792 0.108048 55 35 37
1.03338 -1.17447 0.0112009 102 98 89
1.38982 -1.23253 0.322729 62 52 43
1.21106 -1.27037 0.143195 111 108 101
1.33112 -1.23023 0.307321 80 65 47
1.2534 -1.23279 0.28531 50 38 25
1.44563 -1.16043 0.228763 66 56 50
1.38959 -1.16963 0.30322 80 67 54
1.33055 -1.17282 0.285087 71 60 46
1.33298 -1.15693 0.347758 58 51 47
1.41721 -1.14044 0.278705 85 74 66
1.22774 -1.25013 0.130077 106 102 95
1.44841 -1.31168 0.320714 49 41 35
0.970202 -1.28988 0.00580843 22 22 24
1.20391 -1.23044 0.289698 78 63 47
1.35017 -1.21179 0.0833868 65 60 56
0.99665 -1.189 0.0540317 25 25 24
1.27133 -1.20929 0.146032 88 81 71
1.30961 -1.17351 0.186469 37 27 24
1.37257 -1.15289 0.226203 38 34 31
1.29041 -1.22874 0.226204 76 62 46
1.24978 -1.09215 0.148604 107 106 103
1.35123 -1.21099 0.306086 76 62 46
1.16773 -1.23483 0.0642998 79 73 68
1.23002 -1.07255 0.148331 102 101 97
1.19208 -1.17194 0.180425 96 90 85
1.37098 -1.17221 0.245381 43 37 33
0.988268 -1.25076 0.102906 65 53 50
1.15857 -1.21053 0.181902 118 118 118
1.19005 -1.21104 0.107535 83 78 72
1.31288 -1.13102 0.289859 53 42 33
1.23248 -1.20895 0.286029 49 38 29
1.33114 -1.15776 0.320892 67 57 48
1.26936 -1.0951 0.110354 136 136 133
1.23097 -1.17091 0.32729 59 46 36
0.99814 -1.22003 0.0131963 37 47 60
1.23343 -1.12799 0.199518 90 88 87
1.14047 -1.25554 0.176801 111 110 104
0.991141 -1.29206 0.00448125 15 18 20
1.4097 -1.17235 0.282988 79 67 54
1.23072 -1.15223 0.186408 98 95 92
1.21035 -1.21106 0.12599 100 96 89
1.06525 -1.19186 0.109039 58 53 49
0.993426 -1.22842 0.0245781 26 32 41
1.27075 -1.13053 0.128385 123 122 118
1.25158 -1.21156 0.145382 107 102 97
1.03339 -1.21149 0.0851941 56 44 41
1.27131 -1.19152 0.284688 64 53 40
1.23528 -1.19389 0.205901 74 66 54
1.31042 -1.15668 0.32565 65 55 46
1.39165 -1.15338 0.264867 67 57 49
1.03454 -1.1934 -0.0166926 101 98 92
1.33143 -1.18926 0.224859 57 50 41
1.39132 -1.24964 0.307207 61 51 41
1.08527 -1.15634 0.0271086 106 102 93
1.19244 -1.19246 0.12425 90 86 79
1.16483 -1.20729 0.150938 96 92 84
1.18976 -1.22968 0.127418 94 90 83
1.20905 -1.21063 0.186869 104 99 95
1.27049 -1.21163 0.206304 73 59 41
1.45113 -1.3111 0.30609 47 41 36
1.07255 -1.26991 0.103148 79 77 75
1.30803 -1.13796 0.246955 92 88 77
1.25201 -1.17188 0.22701 51 41 31
0.991179 -1.20796 0.0640589 25 25 23
1.19301 -1.2693 0.141902 104 101 96
1.35721 -1.24822 0.290228 83 67 48
1.11293 -1.21022 0.122653 79 74 67
0.967874 -1.28803 -0.0889531 7 10 11
1.1464 -1.24857 0.151312 82 79 74
0.988957 -1.27037 0.065756 41 36 33
1.29339 -1.12861 0.0886428 118 118 114
1.01049 -1.25259 0.184132 39 24 19
1.07021 -1.31083 0.0295681 71 65 62
1.01022 -1.27217 0.164054 43 31 27
1.25165 -1.19226 0.147582 111 106 100
1.46901 -1.20966 0.264644 70 61 51
1.39174 -1.1901 0.205295 24 22 21
1.11307 -1.15042 0.126788 87 83 77
1.33038 -1.21068 0.304993 79 65 47
1.21356 -1.23118 0.244764 49 37 27
0.969656 -1.25679 -0.0399777 25 30 37
1.05086 -1.17179 0.0634195 92 91 87
0.951105 -1.26698 0.0643276 37 33 30
1.03066 -1.22935 0.203793 58 46 49
1.24552 -1.12307 0.231681 94 91 90
1.21951 -1.10024 0.177925 76 68 67
1.41285 -1.24866 0.288901 63 53 42
1.35678 -1.15748 0.20472 35 30 24
1.0743 -1.22753 0.104004 90 85 78
1.13126 -1.25101 0.145636 85 82 76
1.34813 -1.12914 0.302277 29 28 31
1.30826 -1.22324 0.108414 101 95 91
1.01439 -1.32886 -0.0549445 31 31 34
0.984754 -1.2143 0.0782331 37 36 35
1.23237 -1.19333 0.165584 108 103 99
1.37031 -1.23174 0.321904 68 57 44
1.3513 -1.18936 0.286959 67 57 43
1.25095 -1.13235 0.204741 90 87 84
1.13842 -1.26782 0.178868 110 108 105
1.36831 -1.19292 0.167538 51 45 39
1.08522 -1.311 0.0511896 59 50 46
1.41152 -1.23015 0.288745 65 56 45
0.970693 -1.29808 0.0466081 34 27 21
0.971385 -1.27246 0.108752 47 37 28
0.96988 -1.29278 0.0685148 43 35 27
1.21027 -1.16695 0.302579 44 34 26
1.25132 -1.19074 0.306201 56 45 34
1.38768 -1.1589 0.189213 39 35 28
1.27222 -1.2121 0.225956 73 57 39
1.38613 -1.18931 0.325311 76 61 50
1.03655 -1.18018 -0.0238671 89 86 89
1.11045 -1.19197 0.104966 85 80 74
1.06699 -1.24934 0.048635 80 76 68
1.35041 -1.17085 0.224813 36 31 27
0.992849 -1.32695 -0.042619 6 6 6
1.39403 -1.17849 0.169502 71 62 50
1.10821 -1.23038 0.107103 78 74 68
1.32973 -1.16354 0.344788 57 49 43
1.28818 -1.13303 0.125039 129 129 123
1.32866 -1.20982 0.124399 41 32 30
1.0093 -1.31033 0.0264797 41 34 34
1.43087 -1.15824 0.241091 72 63 52
1.29187 -1.13433 0.232673 56 50 44
1.39012 -1.17179 0.284531 74 63 50
1.12834 -1.2517 0.0884623 78 73 67
1.00776 -1.32772 -0.0389046 33 36 38
1.3306 -1.17286 0.266905 75 64 54
1.10852 -1.21154 0.04826 74 69 63
1.26994 -1.11305 0.105656 128 127 123
1.29053 -1.15261 0.285047 44 37 29
1.18913 -1.25087 0.127705 99 95 88
1.1252 -1.17054 0.0498582 95 90 83
1.10855 -1.17006 0.0869702 89 85 79
1.46836 -1.17648 0.228066 74 68 59
1.35102 -1.22462 0.246913 84 70 51
1.33095 -1.19065 0.305718 79 64 47
1.21494 -1.17356 0.226162 82 76 72
1.08528 -1.2891 0.0486941 75 71 64
1.05197 -1.25183 0.0646571 89 88 82
1.37034 -1.20992 0.206159 58 51 47
1.12963 -1.21138 0.0699646 79 73 66
1.34926 -1.12952 0.284867 26 20 16
1.05257 -1.29022 0.103042 49 34 34
1.45237 -1.25023 0.271025 62 53 43
1.26958 -1.10846 0.186167 92 91 89
1.22957 -1.23026 0.263987 50 39 27
1.31077 -1.1884 0.206121 40 33 28
1.25242 -1.17298 0.166189 100 97 91
0.978497 -1.27811 0.135872 50 39 31
1.2514 -1.13018 0.129358 123 121 117
1.29121 -1.19035 0.125083 105 101 96
1.09088 -1.15021 0.0845978 73 69 65
1.06768 -1.25811 0.181183 32 14 17
0.994869 -1.24953 0.197793 29 18 13
1.13091 -1.19087 0.0847664 85 80 75
1.22831 -1.191 0.112848 104 98 93
1.17248 -1.15167 0.166211 84 78 72
1.19048 -1.0898 0.158237 49 45 42
0.973106 -1.28408 -0.00511936 23 25 27
1.30346 -1.24165 0.201566 82 74 67
1.21226 -1.19111 0.144442 98 92 89
1.49055 -1.23014 0.245305 74 68 61
1.3106 -1.17187 0.3052 79 66 50
1.39135 -1.22983 0.266515 79 66 49
1.2106 -1.11123 0.145359 83 81 77
1.25261 -1.21232 0.306387 58 47 35
1.26645 -1.09908 0.175919 95 93 92
1.2499 -1.17125 0.266753 55 44 34
1.03065 -1.27119 0.166916 44 35 30
1.18736 -1.13239 0.127394 74 69 64
0.990965 -1.27113 -0.0523654 8 12 15
1.43023 -1.17115 0.206434 78 71 63
1.34932 -1.20946 0.125333 73 66 60
1.0918 -1.24993 0.0862097 76 72 67
1.27251 -1.17453 0.263857 67 55 41
1.36949 -1.29115 0.341102 59 49 38
1.152 -1.23287 0.163444 101 99 93
1.0697 -1.28904 0.0472166 76 67 60
1.07093 -1.16904 0.0287779 103 101 90
1.35113 -1.21084 0.287921 80 67 49
1.10532 -1.2704 0.0672164 72 68 61
1.27116 -1.19089 0.108199 105 102 98
1.0914 -1.19152 0.0643564 84 81 74
1.39485 -1.2614 0.294376 71 59 44
1.31149 -1.18897 0.0850674 107 105 100
1.35019 -1.19069 0.305442 74 61 45
1.03136 -1.2892 0.125762 40 25 23
1.06488 -1.22736 0.0295637 76 70 63
1.03018 -1.2544 0.223956 53 50 51
1.2295 -1.15645 0.345065 54 44 35
1.05076 -1.17181 0.0827897 97 94 87
1.30687 -1.22681 0.245444 68 53 36
1.35018 -1.20776 0.205559 52 45 39
1.45359 -1.19232 0.186072 68 60 52
1.23064 -1.15114 0.143441 103 96 93
1.00956 -1.29219 0.00507494 44 43 42
1.2314 -1.2326 0.143916 116 111 105
1.23208 -1.23075 0.167699 87 80 75
1.33146 -1.18997 0.164698 34 28 25
1.23192 -1.15049 0.111034 91 84 81
1.37069 -1.20944 0.226137 53 46 40
1.16908 -1.22928 0.166641 95 91 86
1.01741 -1.17392 0.0244507 74 74 72
1.34978 -1.19232 0.321855 73 60 46
1.46801 -1.28922 0.304132 56 48 41
1.17458 -1.21402 0.119938 85 80 73
1.1649 -1.25064 0.0726034 87 81 75
1.05439 -1.20786 0.101413 71 68 66
1.2468 -1.11358 0.146974 116 115 111
1.30963 -1.21188 0.245414 66 54 42
1.08925 -1.19052 0.047508 88 83 76
1.19123 -1.11248 0.145156 80 76 71
1.16881 -1.18826 0.149372 102 97 90
1.10593 -1.13873 0.0545082 92 89 85
1.41049 -1.29214 0.322529 50 42 35
1.36951 -1.19242 0.187031 41 35 29
1.12758 -1.2105 0.129197 79 73 67
1.19223 -1.22858 0.272696 119 114 108
1.10777 -1.15186 0.0487509 88 84 78
1.15262 -1.23325 0.0652755 86 80 74
1.27128 -1.19074 0.266177 64 53 39
1.4324 -1.18722 0.246627 71 62 51
1.09265 -1.25108 0.0469699 68 63 57
1.4728 -1.27128 0.272658 56 49 41
1.0256 -1.26791 -0.0266211 62 59 54
1.44968 -1.22839 0.167877 61 56 48
1.21016 -1.17149 0.108692 95 89 82
1.09014 -1.23392 0.0492968 85 82 74
1.42903 -1.15376 0.28333 76 64 51
1.02103 -1.30244 -0.0493936 53 57 69
1.43003 -1.19203 0.284021 77 65 52
1.35071 -1.17265 0.302935 62 51 41
1.27086 -1.11174 0.0898493 112 111 107
1.33069 -1.1905 0.186053 47 41 37
1.03323 -1.2121 0.0253717 91 88 80
1.06783 -1.23031 0.0460153 85 82 73
1.15268 -1.25006 0.163444 101 99 95
1.23194 -1.17007 0.244477 54 44 35
1.30844 -1.16804 0.107243 120 119 112
1.21181 -1.15773 0.344788 45 35 29
1.27209 -1.20984 0.12474 71 65 57
1.1727 -1.25152 0.145574 89 86 82
1.28805 -1.22404 0.126006 51 43 35
1.2297 -1.17265 0.310049 54 42 32
1.01179 -1.27083 0.126596 47 39 36
1.27063 -1.13404 0.159779 112 111 106
1.00965 -1.27195 0.148053 41 28 26
1.27236 -1.1709 0.285097 59 49 39
1.08581 -1.19285 0.0314249 93 91 81
1.00222 -1.30605 -0.0147858 57 55 52
1.4696 -1.31191 0.305691 52 45 39
1.30979 -1.15471 0.287239 70 61 51
1.31212 -1.2071 0.146098 65 58 52
1.03604 -1.17291 0.0854506 67 61 57
1.42944 -1.15912 0.226061 77 69 60
1.29022 -1.14285 0.091531 122 122 118
1.393 -1.22572 0.165585 42 36 31
0.97468 -1.27276 0.125051 51 41 33
1.37226 -1.28871 0.312694 65 53 39
1.15362 -1.11526 0.160464 95 89 81
1.45157 -1.23041 0.28638 61 53 45
1.32905 -1.12861 0.301682 27 23 24
0.969156 -1.27743 -0.0113471 4 4 3
1.21163 -1.11888 0.179087 76 67 68
1.25031 -1.15335 0.304164 48 40 35
1.07161 -1.31079 0.0655726 53 39 36
1.44918 -1.1592 0.246131 80 73 65
1.25216 -1.21245 0.32468 58 46 34
1.47147 -1.25084 0.265084 59 52 44
1.29135 -1.15532 0.183823 68 64 62
1.05128 -1.28851 0.0858208 57 38 36
1.12512 -1.2309 0.0721365 77 72 65
1.4658 -1.25299 0.300926 63 53 43
0.974058 -1.24961 -0.0803673 11 15 18
1.4099 -1.1569 0.205759 70 64 58
1.23013 -1.13219 0.235111 84 82 81
1.04861 -1.27519 0.103929 54 42 43
1.09125 -1.12919 0.0719777 88 86 83
1.48017 -1.29497 0.274441 46 43 38
1.09118 -1.27007 0.0681503 71 67 59
1.25054 -1.11365 0.20276 90 88 86
1.23096 -1.17201 0.124594 108 100 95
1.21348 -1.19411 0.306001 50 38 29
1.00024 -1.23603 0.13938 85 59 53
1.41077 -1.19314 0.206324 29 25 22
1.38413 -1.26113 0.365021 39 37 38
1.11265 -1.171 0.0467194 87 82 75
1.00664 -1.29268 0.0268893 71 60 57
1.3127 -1.18764 0.165473 36 25 23
1.22936 -1.15126 0.166584 102 98 94
1.37078 -1.30961 0.328077 53 43 33
1.17051 -1.19153 0.164965 95 90 85
1.29126 -1.1322 0.102213 116 115 111
1.11068 -1.17169 0.142347 85 81 79
1.31108 -1.19333 0.321159 73 60 44
0.972535 -1.30997 -0.0102465 19 18 12
1.46459 -1.19715 0.281057 85 71 56
1.11307 -1.25167 0.0845992 81 77 70
1.40397 -1.22672 0.255288 83 65 45
1.3514 -1.22463 0.269326 89 73 52
1.45642 -1.22863 0.176946 53 51 50
1.35256 -1.19255 0.246155 54 45 36
1.37015 -1.17273 0.323512 71 60 52
1.29155 -1.13039 0.28643 64 54 46
1.47241 -1.22878 0.248479 66 58 50
0.973227 -1.25324 0.0620133 19 22 26
1.27019 -1.22933 0.18504 68 56 41
1.17322 -1.18972 0.123499 88 84 76
1.46742 -1.23443 0.299229 70 57 46
1.29037 -1.17145 0.166623 96 90 87
1.16611 -1.15255 0.0876796 102 97 93
1.39049 -1.21089 0.304567 70 59 46
1.12869 -1.23114 0.127643 77 74 67
1.33329 -1.15615 0.205623 52 47 39
1.01136 -1.27245 0.0663443 67 44 40
1.16888 -1.21003 0.0851222 94 90 84
1.37271 -1.20872 0.26548 72 61 48
1.37069 -1.17095 0.30422 75 63 50
1.28196 -1.08715 0.150618 98 98 96
1.0177 -1.23131 -0.00969032 64 60 56
1.39091 -1.15253 0.224045 51 45 38
1.07317 -1.25128 0.0651302 80 77 69
1.33132 -1.17385 0.245505 75 65 55
1.05287 -1.21058 0.0470298 86 83 74
1.30911 -1.2107 0.207332 62 51 38
1.17196 -1.2132 0.180984 104 101 95
1.15172 -1.23177 0.122923 93 91 87
1.09555 -1.21184 0.0217085 76 71 70
1.2115 -1.23197 0.224202 51 43 33
1.47264 -1.31001 0.288879 46 42 37
0.955219 -1.27978 -0.0841607 3 5 5
1.03211 -1.27117 0.00523327 65 38 37
1.07069 -1.14984 0.0483094 96 92 86
1.09424 -1.23095 0.120332 81 77 70
1.01217 -1.23006 -0.0352736 19 21 22
1.37207 -1.24837 0.287794 80 65 48
1.07128 -1.15321 0.0284385 102 99 89
1.33086 -1.21304 0.266007 71 58 44
1.21126 -1.14932 0.287352 45 36 30
1.21024 -1.1516 0.144863 103 98 92
1.02881 -1.26967 0.0451397 66 42 40
1.43097 -1.19075 0.265174 74 64 52
1.12901 -1.25092 0.126044 80 78 73
1.23022 -1.26871 0.145328 101 97 91
1.41172 -1.1547 0.304308 84 69 56
1.01528 -1.3102 0.0437421 65 60 60
1.23098 -1.19136 0.28606 54 43 32
1.2706 -1.21367 0.165934 68 59 45
0.989656 -1.25096 -0.0748071 16 22 27
1.23106 -1.21006 0.125 105 99 94
1.26899 -1.09249 0.162836 100 98 95
1.43165 -1.33022 0.310372 39 34 30
1.21018 -1.09245 0.144987 76 73 69
1.02934 -1.31147 0.0278461 75 45 43
1.35092 -1.13956 0.247255 35 31 28
1.29095 -1.21173 0.326242 75 61 44
1.25144 -1.19176 0.284475 53 43 33
1.21037 -1.13069 0.14348 93 89 85
1.31258 -1.21231 0.225511 64 55 45
1.25297 -1.13125 0.102806 105 104 101
1.31086 -1.19131 0.225322 38 31 26
1.15113 -1.27004 0.163419 99 97 93
1.0519 -1.27285 0.166713 45 27 26
1.43231 -1.19132 0.227351 70 61 51
1.17277 -1.10959 0.141994 89 84 79
1.37099 -1.20996 0.306807 74 62 46
1.23265 -1.1905 0.12556 108 100 96
1.35199 -1.1593 0.191684 22 18 10
1.04915 -1.2344 0.2049 55 37 40
1.04406 -1.21758 0.187278 57 62 71
1.02703 -1.21691 0.191193 49 29 30
1.01417 -1.21673 0.186214 71 47 52
1.01047 -1.23483 0.189204 43 22 22
1.01044 -1.25056 0.203688 35 21 18
1.11229 -1.15388 0.104693 75 69 64
1.07178 -1.154 0.064488 99 95 89
1.05009 -1.19158 0.070208 92 91 83
1.03546 -1.19623 0.00721269 102 99 94
0.988604 -1.33089 -0.0522652 23 26 30
1.07143 -1.29042 0.105152 65 56 55
1.05077 -1.26993 0.0674377 89 78 72
1.05142 -1.29078 0.0640226 61 39 38
1.05118 -1.25111 0.0461859 88 85 77
1.03217 -1.29112 0.0236506 57 28 31
1.02985 -1.26899 -0.0142834 66 45 45
1.05485 -1.15625 0.103108 62 60 59
0.991391 -1.25129 -0.0488177 36 44 55
0.99653 -1.27432 -0.0361367 17 21 26
0.993893 -1.29078 -0.0140872 7 9 10
0.990239 -1.31042 0.00730235 31 29 25
0.969308 -1.26931 -0.0382723 21 25 31
0.969179 -1.30749 0.00631398 33 29 24
1.05221 -1.26584 0.190548 50 34 33
1.00955 -1.29046 0.14845 36 25 18
1.01266 -1.25112 0.151256 48 28 28
0.995745 -1.25143 0.146699 49 39 37
0.992028 -1.27124 0.146067 51 43 40
1.37182 -1.17525 0.225581 28 25 22
1.31101 -1.1886 0.186096 36 29 26
1.02233 -1.23511 -0.0557911 49 48 50
1.01152 -1.27141 -0.0551394 14 18 21
1.00617 -1.27016 -0.0714999 7 10 12
0.990958 -1.29017 -0.0736592 8 11 13
0.97168 -1.27072 -0.0791292 12 16 20
0.972261 -1.29247 -0.0766852 6 9 10
0.954614 -1.29086 -0.0760529 9 11 14
1.05133 -1.30997 0.0458816 54 30 30
1.15229 -1.27428 0.182808 115 114 112
1.17086 -1.09251 0.165574 68 65 63
1.16874 -1.11164 0.166973 82 80 77
1.07267 -1.20803 0.140677 70 66 64
1.06436 -1.22515 0.130181 63 62 61
1.05643 -1.22474 0.123651 60 57 57
1.02979 -1.27063 0.0846569 64 39 42
1.0109 -1.27346 0.0860247 64 48 47
1.01225 -1.25162 0.101683 69 45 44
0.990994 -1.28159 0.0465889 44 49 52
1.18747 -1.25998 0.216586 78 74 72
1.03165 -1.23379 -0.0337396 81 78 72
1.03482 -1.19157 -0.0313932 100 97 95
1.44878 -1.20816 0.18426 70 62 54
0.973741 -1.27217 -0.0533246 14 18 23
0.970742 -1.28975 -0.0551484 9 12 16
0.968268 -1.30933 -0.0527841 13 17 20
0.953201 -1.31081 -0.0542595 11 13 14
1.09046 -1.271 0.0859146 73 70 66
0.995877 -1.27717 0.0017421 3 4 3
1.21323 -1.14484 0.268036 45 37 31
1.17041 -1.17061 0.104841 88 83 77
1.17004 -1.1926 0.105859 87 82 76
1.16949 -1.20987 0.108359 90 85 76
1.12997 -1.15043 0.0862732 91 86 81
1.1497 -1.16816 0.0881438 91 86 81
1.14932 -1.1917 0.104144 92 88 83
1.15129 -1.23171 0.10502 86 82 76
1.14464 -1.15172 0.0682806 81 81 85
1.15205 -1.17074 0.104028 87 82 75
1.13351 -1.25063 0.102243 80 75 68
1.10879 -1.21164 0.106264 83 78 73
1.11027 -1.13522 0.0686402 88 86 82
1.11255 -1.15022 0.0844107 87 82 77
1.0912 -1.19031 0.085839 84 79 74
1.09279 -1.21315 0.101815 90 85 81
1.07974 -1.16049 0.0836738 107 106 108
1.06947 -1.19528 0.0861518 103 101 98
1.07065 -1.22913 0.0842607 96 94 88
1.07151 -1.25006 0.0851517 93 90 85
1.05143 -1.23078 0.0846008 94 91 84
1.0554 -1.25184 0.0828956 97 96 91
1.05203 -1.15479 0.0843756 87 85 82
1.05239 -1.20941 0.0844839 89 86 80
1.03165 -1.19178 0.0430115 80 78 74
1.03023 -1.26729 0.0671515 64 46 47
1.03172 -1.25048 0.0456261 78 62 59
1.01082 -1.19337 0.0265795 45 45 44
1.01244 -1.19468 0.048459 63 61 57
1.01074 -1.23061 0.0443798 63 53 52
1.01093 -1.25256 0.0642082 67 52 53
1.01011 -1.29133 0.104733 46 37 33
0.993618 -1.24723 0.0495244 29 32 36
0.993181 -1.19773 0.0306171 37 45 59
0.990014 -1.20564 0.033886 26 32 40
0.972678 -1.23212 0.0441141 14 18 22
0.970799 -1.24635 0.051231 20 23 26
0.971736 -1.27189 0.0675126 34 31 29
0.974367 -1.27216 0.0879612 41 34 29
0.970126 -1.28917 0.0873753 46 39 33
0.974256 -1.21198 0.037414 15 19 23
0.969254 -1.28928 0.106938 52 45 40
0.956872 -1.2158 0.0253002 20 25 31
1.171 -1.21171 0.165737 95 91 86
1.16911 -1.2709 0.167498 101 98 95
1.17306 -1.26951 0.182006 112 110 107
1.16944 -1.11277 0.127777 67 63 59
1.15033 -1.11151 0.110051 44 42 43
1.15324 -1.13421 0.124461 89 84 80
1.15253 -1.15132 0.143544 93 89 83
1.14699 -1.0992 0.107826 66 66 67
1.13518 -1.23236 0.158847 100 98 94
1.13377 -1.15028 0.142371 95 91 87
1.13196 -1.17195 0.146787 91 87 83
1.11271 -1.13521 0.125087 93 92 91
1.11394 -1.15311 0.138599 106 104 103
1.11285 -1.19267 0.140838 78 74 70
1.09008 -1.13423 0.124581 90 86 82
1.08928 -1.15203 0.130676 90 88 87
1.09011 -1.17307 0.140374 75 72 71
1.08686 -1.17001 0.13099 64 59 56
1.07777 -1.19702 0.139392 68 65 62
1.06805 -1.27686 0.141017 63 38 41
1.07305 -1.16973 0.125543 64 59 56
1.07022 -1.19038 0.126564 65 60 57
1.04956 -1.29004 0.125568 54 39 37
1.05076 -1.29105 0.146283 44 32 29
1.05316 -1.19403 0.102994 71 68 65
1.0448 -1.27601 0.121839 60 48 48
1.03149 -1.28907 0.146401 43 31 28
1.01287 -1.23144 0.0090913 52 53 56
1.01382 -1.25099 0.0230398 65 50 50
1.00761 -1.19284 -0.0177027 27 34 43
1.00812 -1.21381 0.00577644 13 15 16
1.01081 -1.23153 0.0232149 63 60 59
0.974015 -1.25269 0.0877335 40 39 38
1.23477 -1.21222 0.223671 63 51 35
1.06973 -1.29326 0.0231331 77 75 70
1.0701 -1.31103 0.0490181 61 48 45
1.0691 -1.23097 -0.0198117 100 98 93
1.07187 -1.251 0.010091 81 78 71
1.06764 -1.26837 0.0113342 88 85 83
1.06957 -1.28078 0.135193 92 91 95
1.04875 -1.23005 0.0276069 87 84 76
1.05359 -1.25449 0.0996828 72 63 60
1.06425 -1.25851 0.160022 44 39 42
1.05035 -1.2109 0.0277939 95 93 84
1.05249 -1.21059 0.0646172 101 98 90
1.05225 -1.25237 0.189662 42 18 21
1.04499 -1.22797 0.191521 53 43 52
1.03348 -1.2721 0.205358 58 51 46
1.02893 -1.21675 0.202758 51 40 46
1.16259 -1.18753 0.0705261 89 85 82
1.15063 -1.18882 0.0713224 83 78 72
1.14901 -1.2103 0.0889762 89 84 79
1.12798 -1.15221 0.0524053 82 80 80
1.12885 -1.16982 0.0671075 85 80 76
1.13018 -1.19184 0.0667224 80 75 69
1.13013 -1.23235 0.0867608 79 74 68
1.11234 -1.23187 0.0835397 79 75 69
1.10938 -1.15039 0.0665573 85 81 76
1.09045 -1.23078 0.0840484 80 75 71
1.08948 -1.15205 0.0469199 96 91 85
1.09218 -1.15257 0.0628062 86 82 77
1.09125 -1.17141 0.0648493 88 84 79
1.09136 -1.21007 0.0861644 76 71 66
1.08903 -1.21218 0.0662081 81 77 70
1.0556 -1.13341 0.0520198 93 90 88
1.33179 -1.11864 0.284042 36 32 32
1.393 -1.19589 0.167067 43 37 32
1.08892 -1.2101 0.00733338 80 76 74
1.07952 -1.21237 0.00619097 78 74 70
1.07053 -1.19945 0.0147805 84 83 87
1.07047 -1.20608 0.0277621 80 75 69
1.04988 -1.20845 0.00720543 91 87 82
1.0535 -1.19275 0.0446881 86 83 76
1.40671 -1.21776 0.12844 52 51 49
1.37029 -1.17194 0.170288 57 51 45
1.32754 -1.22771 0.286554 91 74 51
1.29138 -1.2119 0.304635 72 58 41
1.21508 -1.19665 0.201319 91 84 81
1.21062 -1.13081 0.163555 103 97 93
1.0315 -1.27016 0.0261945 68 40 38
1.35213 -1.22335 0.105002 39 35 33
1.19956 -1.11605 0.17778 93 90 85
1.29186 -1.17253 0.207252 37 30 25
1.03319 -1.17331 0.0613564 104 101 92
1.2699 -1.14935 0.185074 108 105 100
1.21063 -1.2895 0.145964 111 108 103
1.31108 -1.22449 0.170018 57 46 31
1.43194 -1.22996 0.286274 62 53 44
1.10422 -1.23072 0.0469509 67 61 55
1.13177 -1.23193 0.144481 82 79 72
1.45509 -1.30738 0.293256 46 40 35
1.04978 -1.32607 0.0498565 44 19 19
1.33158 -1.21039 0.165715 47 39 32
1.0293 -1.25283 0.145321 53 32 30
1.38946 -1.20987 0.206212 37 32 30
1.41161 -1.17044 0.18587 48 41 35
0.96906 -1.2767 0.00259127 4 5 5
1.28975 -1.20897 0.166942 70 61 45
1.19124 -1.16996 0.146285 92 88 82
1.32921 -1.17104 0.224784 81 73 63
1.3259 -1.2227 0.221417 53 43 32
1.21369 -1.0927 0.162801 113 112 108
1.23237 -1.13149 0.143585 103 99 96
1.349 -1.11639 0.282202 44 42 44
1.33085 -1.12959 0.289709 35 26 22
1.31041 -1.1278 0.301462 40 33 29
1.29756 -1.11516 0.297701 47 42 38
1.29305 -1.11214 0.283731 64 57 51
1.31274 -1.17111 0.0889764 110 109 104
1.30509 -1.1501 0.10501 115 114 109
1.29087 -1.10995 0.107152 130 129 126
1.40994 -1.20901 0.224057 61 54 47
1.41026 -1.21129 0.244698 74 64 52
1.39053 -1.20868 0.244227 62 54 46
1.3914 -1.20779 0.267103 73 63 51
1.39004 -1.21147 0.28711 71 60 47
1.3717 -1.22991 0.288214 80 66 49
1.3711 -1.22997 0.305908 71 59 45
1.35042 -1.2299 0.343604 55 48 42
1.41115 -1.22648 0.186182 47 41 37
1.3916 -1.20844 0.224073 49 42 37
1.39272 -1.20999 0.185347 34 29 27
1.37192 -1.20912 0.244957 56 48 42
1.32991 -1.22954 0.343785 63 52 42
1.39246 -1.20911 0.165101 44 40 36
1.35167 -1.21258 0.26636 79 68 55
1.33065 -1.23042 0.32453 77 63 45
1.39454 -1.22275 0.149076 29 25 24
1.35024 -1.21144 0.244292 54 46 40
1.36953 -1.20781 0.165627 48 43 38
1.37217 -1.20697 0.185758 41 37 34
1.31093 -1.21866 0.338045 63 52 41
1.33107 -1.21045 0.245964 54 46 39
1.31 -1.21142 0.305994 79 64 45
1.33118 -1.21216 0.207009 40 34 31
1.33031 -1.20951 0.22659 42 36 31
1.31105 -1.21089 0.286992 68 55 41
1.35157 -1.20821 0.146626 55 50 44
1.33315 -1.20995 0.185724 36 29 24
1.35018 -1.21138 0.10506 77 71 65
1.29179 -1.20962 0.266882 70 57 42
1.2893 -1.21007 0.287453 66 52 38
1.29128 -1.19242 0.26555 61 51 39
1.27109 -1.2108 0.304352 69 55 40
1.33162 -1.21403 0.0858809 90 86 81
1.29098 -1.14948 0.265051 40 35 30
1.29063 -1.19094 0.28654 69 56 41
1.27233 -1.21132 0.285219 68 55 39
1.30941 -1.17369 0.166192 43 34 31
1.28774 -1.13472 0.265091 38 35 29
1.27109 -1.15001 0.285193 41 37 33
1.3126 -1.1896 0.106376 102 100 95
1.25198 -1.15228 0.266801 64 54 44
1.23067 -1.21232 0.324968 49 38 30
1.23338 -1.19244 0.266134 49 38 30
1.21358 -1.2141 0.322038 52 39 32
1.23131 -1.15715 0.246494 58 49 39
1.21039 -1.21198 0.305243 56 44 34
1.21091 -1.19023 0.265988 53 42 33
1.21391 -1.1741 0.244663 62 54 47
1.1954 -1.19427 0.283593 50 41 36
1.10967 -1.23143 0.0663359 72 67 61
1.43178 -1.19231 0.206974 65 58 49
1.42975 -1.17231 0.225481 71 63 53
1.40977 -1.17248 0.265107 77 66 53
1.43078 -1.21486 0.147424 61 56 50
1.39178 -1.1737 0.266142 65 56 46
1.41137 -1.17283 0.225345 62 54 48
1.37132 -1.17298 0.285856 63 54 44
1.3527 -1.1708 0.323982 72 61 51
1.39091 -1.17371 0.225438 28 25 24
1.39037 -1.18904 0.188284 41 35 30
1.35138 -1.17142 0.286493 64 55 43
1.34986 -1.17231 0.265031 54 47 39
1.33119 -1.1683 0.323502 69 58 46
1.36965 -1.17238 0.20848 34 29 27
1.31144 -1.15561 0.346172 56 48 42
1.3512 -1.15507 0.244039 31 28 26
1.33039 -1.15322 0.26473 37 33 31
1.30881 -1.16899 0.321888 76 62 47
1.34874 -1.17141 0.187562 61 56 50
1.2901 -1.15254 0.345216 65 53 45
1.33074 -1.15341 0.225666 52 47 44
1.31125 -1.15329 0.265731 56 51 45
1.34967 -1.19438 0.148709 79 74 66
1.32932 -1.17321 0.185343 45 38 32
1.29172 -1.17183 0.306186 72 60 45
1.27352 -1.15594 0.322387 53 44 39
1.30791 -1.15464 0.206052 48 41 36
1.27263 -1.17211 0.305747 65 54 40
1.25185 -1.15533 0.364767 64 52 41
1.32799 -1.19623 0.0839805 112 110 105
1.24793 -1.15559 0.327605 44 35 30
1.25184 -1.15484 0.344072 54 44 38
1.30903 -1.1902 0.120209 95 92 87
1.27214 -1.11561 0.273352 20 20 18
1.23041 -1.1513 0.304676 51 40 33
1.21304 -1.15356 0.303717 45 36 29
1.40855 -1.1706 0.300879 77 65 53
1.42987 -1.20846 0.226669 70 61 53
1.4114 -1.18845 0.246367 69 60 51
1.42975 -1.20854 0.187444 61 55 50
1.39056 -1.18765 0.267333 70 60 48
1.40955 -1.21282 0.167476 39 35 35
1.34466 -1.16681 0.342834 58 51 47
1.39049 -1.17081 0.207274 22 20 20
1.35092 -1.18958 0.18904 48 41 34
1.29364 -1.15306 0.321231 77 63 49
1.26801 -1.1063 0.198893 88 88 86
1.27093 -1.09418 0.146845 110 109 107
1.24898 -1.11058 0.189209 92 91 89
1.25109 -1.09466 0.165362 107 105 102
1.2749 -1.13046 0.0861152 112 112 108
1.23064 -1.11332 0.184816 93 90 88
1.22908 -1.1119 0.144373 119 117 113
1.23066 -1.13113 0.185123 99 97 93
1.18956 -1.25242 0.205183 114 111 106
1.2103 -1.13253 0.12719 99 95 90
1.20948 -1.15043 0.169295 101 94 90
1.19112 -1.1495 0.179705 87 81 77
1.19195 -1.21156 0.183871 101 98 93
1.19094 -1.2325 0.184368 97 93 90
1.19158 -1.25132 0.184076 94 90 87
1.21472 -1.1533 0.1068 94 90 85
1.2096 -1.15176 0.126992 92 87 81
1.18889 -1.14967 0.146885 96 91 84
1.19611 -1.19032 0.147399 86 81 77
1.19057 -1.23254 0.145295 86 83 79
1.19022 -1.23138 0.167555 99 96 90
1.18826 -1.25089 0.167909 97 94 90
1.17251 -1.25046 0.184994 117 115 111
1.16985 -1.25165 0.124745 87 83 77
1.1496 -1.2511 0.0538199 62 56 53
1.08885 -1.16996 0.0306342 92 88 79
1.02861 -1.25152 -0.0295658 70 67 62
1.02771 -1.25235 -0.0138843 78 72 67
1.47 -1.21287 0.166133 73 66 56
1.4509 -1.1878 0.225585 72 63 51
1.43085 -1.17187 0.245891 74 65 53
1.37452 -1.16076 0.322893 58 55 50
1.34913 -1.15837 0.324755 62 55 49
1.37088 -1.19072 0.246047 49 42 35
1.33091 -1.18938 0.264419 75 63 49
1.29042 -1.2105 0.246055 69 55 39
1.29113 -1.19123 0.225519 46 37 29
1.28979 -1.19227 0.245521 53 44 34
1.27147 -1.19101 0.245869 64 53 40
1.24456 -1.16802 0.331909 49 36 30
1.28343 -1.13861 0.207922 71 66 63
1.27171 -1.15268 0.244226 42 34 27
1.30585 -1.13481 0.102244 130 131 126
1.24798 -1.15465 0.244035 61 52 40
1.23075 -1.17134 0.224975 54 45 36
1.05854 -1.2485 0.145966 53 45 43
1.03275 -1.25809 0.120917 37 10 12
1.02716 -1.27033 0.144593 34 18 15
1.0299 -1.22917 0.0851908 62 44 41
1.01523 -1.2158 0.0836119 72 50 49
1.40885 -1.25083 0.323223 55 47 40
1.38688 -1.25541 0.360384 42 40 41
1.37147 -1.25368 0.361337 49 42 38
1.39125 -1.21257 0.321891 60 51 43
1.3718 -1.23323 0.343153 58 49 41
1.36841 -1.25039 0.349074 56 48 40
1.35178 -1.27114 0.360459 51 43 36
1.36986 -1.21224 0.323893 70 58 46
1.37085 -1.19068 0.28675 72 61 47
1.37199 -1.18974 0.207342 35 29 25
1.35087 -1.1901 0.265995 58 48 37
1.33142 -1.18865 0.288743 71 59 43
1.35061 -1.18883 0.20607 47 41 36
1.35065 -1.1907 0.225473 43 37 31
1.3117 -1.19077 0.304589 75 61 44
1.29153 -1.1929 0.320713 75 61 44
1.30728 -1.18816 0.265109 59 48 38
1.29163 -1.19063 0.304097 71 57 41
1.25098 -1.19389 0.319631 55 44 33
1.27055 -1.1484 0.205569 81 77 74
1.27335 -1.13107 0.190955 86 84 83
1.25102 -1.15088 0.206992 77 72 67
1.23482 -1.17555 0.281757 67 54 38
1.26871 -1.10705 0.163013 114 113 109
1.25131 -1.09272 0.125553 123 122 119
1.19598 -1.21311 0.272259 54 46 37
1.24656 -1.09429 0.10551 92 90 87
1.2306 -1.09242 0.142875 106 105 102
1.21214 -1.2501 0.205286 68 62 55
1.21032 -1.19052 0.185015 112 105 101
1.21001 -1.23094 0.185977 106 101 97
1.19212 -1.26931 0.184916 96 93 90
1.19109 -1.28987 0.184067 99 95 92
1.20999 -1.11268 0.164958 97 93 90
1.21136 -1.10955 0.129664 62 59 56
1.18986 -1.16977 0.166992 103 98 92
1.19066 -1.11114 0.131517 66 63 58
1.39352 -1.15772 0.308178 83 67 53
1.17083 -1.13282 0.109509 63 59 56
1.16969 -1.14829 0.125389 88 82 75
1.14852 -1.22911 0.15023 85 80 74
1.14881 -1.15095 0.126538 91 85 78
1.13276 -1.15408 0.123715 85 79 72
1.13075 -1.17092 0.126241 82 76 70
1.1431 -1.13512 0.0954938 23 21 22
1.13156 -1.13521 0.0877261 74 68 63
1.11455 -1.19291 0.123657 85 79 73
1.11157 -1.13469 0.084292 77 71 66
1.07081 -1.27085 0.0658215 77 72 65
1.07213 -1.21124 0.0636222 89 86 77
1.05221 -1.29099 0.0464423 58 34 32
1.07053 -1.1911 0.0455946 90 86 78
1.03253 -1.22889 0.0253777 81 75 69
1.01607 -1.30194 0.0598775 51 39 37
1.00975 -1.22732 0.066419 63 44 42
0.992692 -1.30919 0.0471406 45 36 28
0.991899 -1.29034 0.0838081 43 32 25
1.41482 -1.25128 0.342876 47 41 38
1.4712 -1.21146 0.227177 69 61 53
1.45207 -1.1887 0.247004 78 67 55
1.45058 -1.19269 0.264007 73 63 52
1.42862 -1.23128 0.302928 62 52 43
1.39048 -1.31029 0.343079 46 39 33
1.40967 -1.19473 0.30187 76 63 50
1.3696 -1.31157 0.342518 54 44 33
1.35018 -1.29138 0.340228 67 55 40
1.35091 -1.25165 0.32513 73 60 44
1.33137 -1.1949 0.321839 77 63 47
1.33079 -1.19235 0.244046 71 61 50
1.25326 -1.17488 0.204987 61 51 39
1.25301 -1.13105 0.193758 86 85 84
1.2194 -1.14007 0.269544 47 38 27
1.22652 -1.0923 0.18653 89 87 84
1.18983 -1.20794 0.170135 107 104 98
1.16811 -1.13688 0.167126 86 80 73
1.15553 -1.13219 0.163091 89 84 76
1.11123 -1.22939 0.12623 80 77 70
1.0669 -1.16622 0.115561 60 57 52
1.07258 -1.20825 0.105505 79 74 68
1.02088 -1.2333 0.157682 44 33 30
0.991382 -1.252 0.126893 51 38 32
0.973729 -1.27173 0.039228 14 13 11
1.2321 -1.2118 0.244955 55 43 29
1.4912 -1.21298 0.223614 78 68 58
1.47191 -1.20789 0.249097 65 58 50
1.43131 -1.21853 0.319233 58 50 44
1.41478 -1.23313 0.339688 43 39 39
1.46359 -1.22197 0.220947 59 53 47
1.3853 -1.21322 0.341623 64 54 43
1.39224 -1.22542 0.20377 51 41 30
1.32829 -1.22494 0.202547 49 40 30
1.28888 -1.17297 0.245011 54 45 36
1.3273 -1.22451 0.0852312 82 78 74
1.22994 -1.21041 0.264946 45 34 25
1.23012 -1.17194 0.14618 104 97 93
1.23119 -1.19192 0.14639 100 94 89
1.48605 -1.21315 0.262489 81 71 59
1.4302 -1.29219 0.320488 51 43 36
1.49078 -1.23269 0.227648 71 61 51
1.43047 -1.25085 0.324641 53 45 38
1.4716 -1.21023 0.204763 72 64 54
1.39161 -1.29168 0.325037 52 44 35
1.39055 -1.31236 0.326532 46 38 31
1.37025 -1.27165 0.32585 65 54 41
1.35004 -1.27078 0.326764 71 59 43
1.26982 -1.21026 0.266239 67 53 38
1.25249 -1.21231 0.264055 66 53 38
1.29049 -1.1889 0.168332 54 46 40
1.29239 -1.19175 0.106445 105 102 97
1.29037 -1.21061 0.109016 78 73 67
1.2487 -1.18984 0.206328 68 56 40
1.2481 -1.21015 0.225966 65 52 35
1.28811 -1.15193 0.105022 116 115 110
1.27237 -1.22356 0.12716 73 66 57
1.27309 -1.17059 0.110121 104 103 99
1.27114 -1.20391 0.11223 99 96 93
1.24993 -1.22969 0.144892 77 71 65
1.22882 -1.21091 0.206635 70 62 51
1.27028 -1.13177 0.102268 112 111 107
1.24772 -1.22736 0.128381 100 94 89
1.25106 -1.1496 0.105454 102 99 96
1.23096 -1.25002 0.14651 110 105 99
1.23103 -1.24915 0.167264 82 76 69
1.23052 -1.26947 0.167716 84 78 70
1.21188 -1.27079 0.165331 95 91 87
1.25738 -1.10922 0.0932458 113 112 109
1.22578 -1.16812 0.109308 95 88 83
1.20949 -1.26777 0.129672 95 92 87
1.21143 -1.1716 0.126574 99 93 87
1.21357 -1.09042 0.132557 56 53 49
1.19313 -1.07157 0.146813 51 48 43
1.19008 -1.15109 0.128214 85 80 74
1.1904 -1.16954 0.107167 89 83 76
1.17132 -1.08902 0.143065 50 46 42
1.11666 -1.12821 0.11091 70 64 58
1.00755 -1.2887 -0.0651212 2 3 3
0.959976 -1.27437 -0.0421551 3 4 4
1.45549 -1.26244 0.27218 67 56 43
1.48586 -1.23159 0.263681 79 72 65
1.46823 -1.25082 0.285167 58 51 44
1.46839 -1.23357 0.283676 65 56 47
1.48876 -1.21238 0.24553 72 65 56
1.49265 -1.20801 0.206444 79 71 62
1.41021 -1.25098 0.307328 59 50 40
1.47052 -1.20979 0.185841 75 66 56
1.29006 -1.17158 0.267325 47 39 29
1.27097 -1.17357 0.16767 81 76 70
1.27059 -1.17182 0.184148 70 63 56
1.24978 -1.1737 0.187026 68 62 51
1.26327 -1.07328 0.159782 105 103 102
1.2524 -1.07048 0.149577 113 111 108
1.23344 -1.17167 0.167971 116 111 107
1.23369 -1.05436 0.148126 82 80 75
1.23332 -1.06855 0.158024 109 107 101
1.17081 -1.0725 0.148327 48 44 40
1.14931 -1.17111 0.127605 93 87 79
1.15098 -1.19071 0.124973 92 87 79
1.15391 -1.09395 0.125579 55 51 47
1.08947 -1.2305 0.0671758 74 70 63
1.0499 -1.31228 0.0248484 53 25 26
1.48867 -1.28808 0.286816 65 60 53
