ply
format ascii 1.0
comment Created by Open3D
element vertex 205
property double x
property double y
property double z
property uchar red
property uchar green
property uchar blue
end_header
2.61353 -1.29553 1.10275 106 98 96
2.57015 -1.26819 1.16676 171 169 168
2.59291 -1.28749 1.04637 187 185 186
2.56558 -1.22954 1.1105 131 124 123
2.5551 -1.32975 1.04588 138 136 135
2.59076 -1.28672 1.14468 180 178 178
2.53034 -1.23705 1.06632 194 179 178
2.58916 -1.30834 1.02798 203 202 204
2.533 -1.24799 1.02684 195 193 194
2.55179 -1.29003 1.10885 136 136 136
2.51499 -1.25256 1.10491 142 140 139
2.55433 -1.30956 1.16627 130 123 120
2.57025 -1.25386 1.16346 159 159 159
2.51447 -1.26968 1.14225 114 110 109
2.58933 -1.27591 1.04762 168 165 164
2.58932 -1.27497 1.02661 191 188 188
2.55099 -1.23406 1.08322 170 163 162
2.53311 -1.27446 1.02401 164 161 160
2.53397 -1.30767 1.02231 148 144 142
2.51894 -1.26729 1.07033 190 189 187
2.53158 -1.23698 1.10382 158 157 157
2.5527 -1.29262 1.14305 123 122 121
2.51029 -1.24727 1.04932 177 175 173
2.54985 -1.28871 1.00684 203 203 204
2.59064 -1.30974 1.08509 113 113 113
2.56893 -1.27391 1.00797 211 206 207
2.55065 -1.33214 1.08466 112 108 106
2.59022 -1.25363 1.12683 104 96 92
2.53267 -1.2897 1.02477 139 135 132
2.53287 -1.23683 1.08818 195 193 193
2.55049 -1.23612 1.13984 132 129 128
2.58565 -1.22187 1.14535 138 126 118
2.53319 -1.30433 1.1246 102 96 92
2.58612 -1.2878 1.00477 229 199 188
2.56335 -1.24051 1.15727 199 201 201
2.55093 -1.29237 1.16628 121 118 115
2.5705 -1.31092 1.04575 168 168 169
2.51602 -1.2523 1.14435 108 104 102
2.61094 -1.29252 1.12926 170 164 163
2.57095 -1.24593 1.12415 50 52 50
2.56764 -1.28856 1.14763 164 164 164
2.58968 -1.29161 1.12482 146 143 144
2.5494 -1.2732 1.12388 127 128 128
2.56907 -1.27174 1.14598 125 118 118
2.51471 -1.26824 1.10788 139 138 138
2.60852 -1.31163 1.08453 92 88 89
2.54828 -1.26949 1.00485 200 199 200
2.53224 -1.29007 1.12622 127 125 124
2.59204 -1.24156 1.06487 144 137 131
2.60437 -1.26993 1.10983 76 79 70
2.5134 -1.23805 1.10521 118 116 116
2.5336 -1.2869 1.04405 138 133 130
2.59154 -1.27267 1.107 125 120 118
2.59275 -1.31124 1.10613 134 135 138
2.57086 -1.29319 1.08169 141 141 141
2.54924 -1.30821 1.1241 129 127 125
2.5341 -1.27245 1.01012 178 176 176
2.55235 -1.26533 1.09459 169 169 166
2.55453 -1.25531 1.01244 224 225 227
2.5507 -1.27152 1.16771 145 144 144
2.51054 -1.23064 1.08597 142 138 137
2.57207 -1.31199 1.16511 153 152 151
2.57086 -1.27315 1.04567 194 193 195
2.55066 -1.23343 1.10517 161 159 158
2.60893 -1.29148 1.0836 126 121 119
2.55442 -1.33048 1.06915 111 109 107
2.54978 -1.25128 1.08454 193 191 192
2.56913 -1.30622 1.08721 134 134 133
2.58815 -1.2543 1.03961 232 190 186
2.52765 -1.23533 1.13812 124 122 122
2.57153 -1.29245 1.06606 159 159 159
2.53117 -1.22852 1.13225 103 102 104
2.54049 -1.30176 1.05189 107 104 98
2.529 -1.2488 1.08663 180 179 180
2.59015 -1.27582 1.06778 186 183 182
2.51183 -1.25137 1.12674 114 110 108
2.51138 -1.23504 1.06781 185 176 174
2.53994 -1.30814 1.10457 94 92 89
2.51367 -1.26341 1.04749 166 163 161
2.56673 -1.23705 1.06779 191 186 186
2.56979 -1.2911 1.02794 223 210 208
2.54966 -1.24988 1.14482 135 133 132
2.55154 -1.2916 1.02671 198 198 198
2.54857 -1.24861 1.06343 207 189 188
2.55211 -1.27323 1.02275 198 183 179
2.57967 -1.21985 1.14719 218 132 111
2.58145 -1.31234 1.0084 193 193 193
2.60568 -1.28986 1.06337 168 164 164
2.6071 -1.27236 1.16533 148 135 136
2.57153 -1.31084 1.10646 134 134 133
2.60516 -1.27684 1.06746 192 180 180
2.571 -1.27372 1.02548 213 194 192
2.54047 -1.30018 1.06592 125 123 120
2.55002 -1.27146 1.04945 153 151 153
2.57051 -1.25039 1.14519 115 96 92
2.55009 -1.2517 1.10401 114 114 114
2.53376 -1.30352 1.01008 154 151 148
2.56764 -1.24933 1.06686 197 193 192
2.55126 -1.31074 1.06734 134 132 131
2.55057 -1.29302 1.12541 129 128 128
2.57593 -1.31539 1.12301 149 149 149
2.56985 -1.27581 1.12704 103 103 105
2.53223 -1.2894 1.10853 123 120 118
2.56362 -1.23435 1.08356 132 128 124
2.60826 -1.27404 1.08296 164 155 151
2.60088 -1.2584 1.14024 119 113 107
2.49861 -1.25172 1.08409 109 102 95
2.55261 -1.29475 1.08518 138 136 137
2.55302 -1.23379 1.12625 122 115 114
2.60376 -1.28967 1.02809 200 199 200
2.58921 -1.25572 1.16548 179 173 173
2.55469 -1.27331 1.06039 163 162 164
2.56921 -1.27628 1.09878 126 126 126
2.54812 -1.30995 1.02515 163 160 159
2.57139 -1.2283 1.12578 145 137 134
2.56968 -1.26717 1.08964 174 172 171
2.51398 -1.25008 1.08559 161 160 159
2.54687 -1.24939 1.12475 117 115 114
2.55433 -1.29429 1.04598 172 172 172
2.58952 -1.28984 1.06541 148 146 147
2.6271 -1.29676 1.09084 164 129 121
2.55118 -1.26978 1.10576 123 123 122
2.57343 -1.2884 1.00625 227 218 218
2.53692 -1.27086 1.0417 125 123 123
2.57211 -1.25771 1.02594 180 155 141
2.55486 -1.33117 1.02809 138 136 134
2.54965 -1.23567 1.06662 204 201 202
2.58599 -1.2759 1.00876 221 179 161
2.56862 -1.25572 1.04613 190 184 182
2.55009 -1.24958 1.02615 208 194 190
2.61286 -1.31135 1.10448 130 117 117
2.61239 -1.31333 1.06429 136 129 128
2.59182 -1.33133 1.08359 121 120 120
2.59004 -1.29116 1.08407 124 120 120
2.60703 -1.28819 1.04829 152 150 148
2.59161 -1.30997 1.06542 128 128 128
2.59021 -1.33157 1.06722 124 124 123
2.57094 -1.31116 1.06818 136 135 135
2.59046 -1.29328 1.02369 208 205 208
2.57085 -1.2742 1.06253 184 181 181
2.5537 -1.29474 1.06442 144 144 144
2.56884 -1.33083 1.04657 107 106 104
2.55159 -1.31088 1.04438 146 144 143
2.54946 -1.2508 1.04514 199 185 182
2.61121 -1.2726 1.1467 171 153 151
2.59012 -1.27079 1.14624 162 148 145
2.57034 -1.23355 1.14343 69 67 65
2.54972 -1.25709 1.16351 132 132 132
2.53392 -1.25675 1.16166 118 117 118
2.53816 -1.28429 1.16167 137 133 130
2.5527 -1.30817 1.14667 130 125 123
2.5294 -1.25033 1.14903 116 114 113
2.53285 -1.28838 1.14661 129 124 120
2.52896 -1.26883 1.14647 137 137 138
2.51694 -1.23673 1.12988 87 85 86
2.51625 -1.29156 1.12973 109 105 104
2.52627 -1.26862 1.08641 172 172 171
2.60918 -1.29284 1.16626 63 65 67
2.59265 -1.27328 1.16649 184 162 156
2.59067 -1.28886 1.16488 176 171 171
2.58991 -1.31194 1.16739 172 172 172
2.61206 -1.28728 1.14834 185 173 170
2.61072 -1.31348 1.14641 195 185 185
2.59298 -1.31423 1.14514 178 178 178
2.58874 -1.313 1.12696 175 176 176
2.57048 -1.28844 1.10781 116 116 116
2.5717 -1.33154 1.10564 139 138 137
2.5487 -1.30938 1.10557 131 129 128
2.53274 -1.25228 1.12345 128 126 127
2.53158 -1.26699 1.12452 125 124 124
2.53686 -1.31186 1.09064 114 110 106
2.539 -1.32985 1.08612 115 108 103
2.51712 -1.28358 1.10513 131 129 128
2.51325 -1.26809 1.08717 135 132 128
2.53165 -1.23773 1.04426 208 190 184
2.62855 -1.29241 1.12402 181 172 169
2.57143 -1.29149 1.16441 175 175 175
2.58892 -1.27022 1.12455 131 114 111
2.58702 -1.2884 1.10904 116 115 114
2.57022 -1.29093 1.12832 133 133 135
2.59404 -1.27603 1.0861 151 141 140
2.5667 -1.24726 1.11288 118 116 117
2.5663 -1.25257 1.08536 166 165 166
2.53242 -1.27075 1.10647 134 133 132
2.55483 -1.32714 1.10179 119 116 115
2.53002 -1.2509 1.10481 156 154 154
2.52952 -1.29358 1.09455 112 111 108
2.52833 -1.24882 1.06408 209 199 197
2.50989 -1.25177 1.06727 173 172 169
2.5909 -1.25561 1.14834 167 157 152
2.57101 -1.2889 1.04544 204 202 205
2.51585 -1.27054 1.12751 132 131 129
2.54651 -1.23816 1.0455 225 225 227
2.53167 -1.24755 1.04791 223 201 191
2.54438 -1.30876 1.00575 166 165 164
2.59139 -1.33095 1.12634 152 151 151
2.56881 -1.31329 1.14491 135 134 134
2.54829 -1.27377 1.1431 134 136 138
2.59061 -1.30895 1.04475 186 186 186
2.58998 -1.32708 1.10592 135 137 138
2.60984 -1.31541 1.12779 176 173 171
2.5506 -1.31067 1.08479 127 127 126
2.52175 -1.26141 1.06586 199 201 204
2.58319 -1.22533 1.12315 132 125 119
2.51823 -1.28546 1.13989 145 143 142
