ply
format ascii 1.0
comment Created by Open3D
element vertex 888
property double x
property double y
property double z
property uchar red
property uchar green
property uchar blue
end_header
-0.690089 0.770264 -1.13529 185 188 188
-0.664968 0.948456 -1.24945 113 108 102
-0.769038 0.929985 -1.09413 129 124 117
-0.860489 0.830419 -0.975822 167 168 162
-0.809798 0.967931 -1.03597 130 126 119
-0.589815 0.768917 -1.25585 158 158 154
-0.551449 0.88873 -1.31717 138 131 121
-0.773707 0.769695 -1.03705 153 153 149
-0.707488 0.889437 -1.17331 125 120 112
-0.753386 0.948154 -1.09691 131 127 118
-0.671097 0.949782 -1.23312 118 112 104
-0.672445 0.848519 -1.15951 138 132 121
-0.650374 0.889213 -1.19731 134 127 117
-0.675791 0.890345 -1.16011 137 129 120
-0.566181 0.788988 -1.31115 165 160 154
-0.590852 0.927396 -1.33361 120 115 107
-0.571916 0.788478 -1.27588 159 155 147
-0.802852 0.909185 -1.06992 117 113 106
-0.814299 0.948649 -1.01813 135 130 123
-0.611304 0.807483 -1.29683 127 129 130
-0.749869 0.929786 -1.13355 121 116 108
-0.748118 0.949473 -1.11341 129 124 115
-0.609844 0.751904 -1.25037 170 167 163
-0.58265 0.926825 -1.34732 120 115 108
-0.707664 0.868915 -1.15266 135 129 120
-0.586079 0.808926 -1.3459 153 150 145
-0.773194 0.809052 -1.03751 142 139 132
-0.80407 0.950141 -1.07065 120 117 110
-0.767916 0.829347 -1.11474 136 134 132
-0.626168 0.83008 -1.28985 129 128 124
-0.807699 0.849702 -1.05319 122 119 113
-0.74717 0.909888 -1.11281 131 127 118
-0.771632 0.829893 -1.05667 139 135 127
-0.686736 0.810122 -1.17326 143 139 132
-0.732242 0.908667 -1.11708 134 130 120
-0.551257 0.848764 -1.31599 152 147 138
-0.528465 0.929318 -1.37268 138 133 124
-0.727905 0.888981 -1.15352 122 117 110
-0.709035 0.927894 -1.19316 117 111 104
-0.5292 0.930171 -1.41247 125 121 114
-0.551611 0.868684 -1.37614 134 129 122
-0.646157 0.791728 -1.23245 165 167 168
-0.666043 0.929754 -1.21221 130 124 114
-0.589063 0.771568 -1.27423 161 158 153
-0.753795 0.868011 -1.07911 137 133 125
-0.509014 0.949267 -1.39412 138 133 123
-0.7265 0.829192 -1.13135 135 131 124
-0.815469 0.825605 -0.97887 135 129 126
-0.701935 0.991567 -1.21221 113 107 101
-0.713738 0.967757 -1.13976 130 124 114
-0.834668 0.886398 -0.98024 140 137 131
-0.713229 0.948335 -1.13847 131 125 115
-0.8074 0.809832 -1.05251 124 121 116
-0.656718 0.80691 -1.16166 142 136 126
-0.639163 0.789244 -1.17978 146 140 133
-0.726867 0.869316 -1.1326 133 128 119
-0.716923 0.949686 -1.11884 131 122 113
-0.511936 0.927481 -1.3553 132 124 112
-0.709018 0.810084 -1.13518 143 139 131
-0.750102 0.849743 -1.13486 118 115 108
-0.827527 0.928685 -1.01369 132 129 122
-0.767131 0.789563 -1.07294 158 159 156
-0.726701 0.908879 -1.13327 133 128 119
-0.733831 0.974865 -1.10089 124 115 106
-0.743737 0.852175 -1.17497 121 117 112
-0.707308 0.848644 -1.1529 135 130 122
-0.619816 0.868355 -1.30518 125 119 112
-0.708767 0.989184 -1.19393 115 110 102
-0.730444 0.810115 -1.15464 168 170 174
-0.829066 0.94884 -1.014 130 127 121
-0.727915 0.908361 -1.15261 124 118 110
-0.848779 0.848553 -0.975012 149 148 143
-0.714182 0.788508 -1.09787 141 135 128
-0.736303 0.868681 -1.09868 137 132 123
-0.816686 0.888497 -1.0007 139 134 127
-0.748816 0.970132 -1.11394 127 122 113
-0.647353 0.790956 -1.21213 158 156 153
-0.726129 0.948502 -1.17238 116 111 103
-0.565682 0.867852 -1.36866 133 129 121
-0.653853 0.789397 -1.16264 144 137 131
-0.691986 0.987794 -1.17687 127 121 110
-0.788719 0.789303 -1.03441 142 139 132
-0.629193 0.767452 -1.18118 175 177 182
-0.585645 0.770103 -1.29235 160 157 152
-0.70841 0.917845 -1.12139 134 125 116
-0.688665 0.889734 -1.22968 115 109 103
-0.649165 0.928276 -1.19414 128 119 108
-0.742533 0.871364 -1.16604 120 116 108
-0.769758 0.909617 -1.07498 133 129 121
-0.794574 0.808101 -1.01795 142 139 132
-0.821417 0.86802 -1.04585 114 112 106
-0.68921 0.889826 -1.21427 116 111 104
-0.534453 0.928752 -1.31662 127 118 105
-0.708254 0.949428 -1.1925 118 112 105
-0.79602 0.887205 -1.02162 139 133 127
-0.584636 0.789727 -1.29084 162 157 150
-0.687435 0.774134 -1.15338 172 176 175
-0.707017 0.929078 -1.17265 127 122 113
-0.774036 0.787271 -1.0382 144 141 134
-0.649848 0.869639 -1.21477 137 132 122
-0.733334 0.988331 -1.11992 126 120 111
-0.688488 0.889881 -1.17459 134 129 119
-0.727416 0.969356 -1.15335 124 118 110
-0.531575 0.929147 -1.33551 132 124 112
-0.749599 0.868082 -1.09489 135 131 122
-0.72803 0.968649 -1.17176 115 110 103
-0.620586 0.755869 -1.23963 161 161 164
-0.54909 0.868851 -1.33493 148 143 134
-0.591312 0.789749 -1.25677 160 157 150
-0.790013 0.948732 -1.05564 132 128 120
-0.82098 0.888565 -1.04713 113 111 105
-0.588924 0.85143 -1.31327 142 138 130
-0.634503 0.828131 -1.19796 136 129 119
-0.862848 0.89044 -0.991562 138 137 131
-0.844603 0.775254 -1.02451 164 164 164
-0.550907 0.908911 -1.33513 139 134 125
-0.863722 0.929699 -0.994658 133 130 124
-0.729048 0.948917 -1.15288 124 118 110
-0.808054 0.829981 -1.05355 121 119 113
-0.647261 0.949067 -1.23308 131 124 114
-0.810829 0.809412 -0.978791 135 130 127
-0.82589 0.867489 -1.03129 120 117 111
-0.670809 0.929189 -1.1776 132 125 114
-0.777668 0.95019 -1.06048 134 129 120
-0.788775 0.908756 -1.07374 126 122 115
-0.859564 0.813655 -0.974531 170 169 164
-0.71759 0.804465 -1.09819 142 136 129
-0.688171 0.989059 -1.19327 126 120 110
-0.571466 0.948987 -1.31605 134 129 118
-0.788993 0.889589 -1.07315 124 121 114
-0.664731 0.909272 -1.21157 131 125 115
-0.789464 0.989192 -1.07367 124 121 113
-0.76655 0.93 -1.11333 119 115 108
-0.815133 0.86761 -0.999984 136 133 126
-0.846489 0.969788 -1.01425 122 119 113
-0.744687 0.774478 -1.0906 174 176 175
-0.628147 0.769758 -1.21514 177 180 182
-0.626022 0.774277 -1.23422 164 167 170
-0.716019 0.868417 -1.12097 137 134 123
-0.671336 0.809202 -1.17421 146 142 133
-0.664204 0.849146 -1.21025 136 131 123
-0.552181 0.849186 -1.29639 138 133 122
-0.585829 0.808693 -1.29117 157 152 145
-0.769285 0.888792 -1.07444 133 129 121
-0.772687 0.988739 -1.07691 129 125 117
-0.644548 0.849744 -1.23095 138 133 125
-0.672686 0.828585 -1.1588 139 132 124
-0.568888 0.789444 -1.29383 160 156 149
-0.768206 0.989593 -1.11326 120 115 108
-0.848118 0.788183 -1.01378 147 145 144
-0.671245 0.94942 -1.19635 131 125 114
-0.671321 0.89012 -1.23423 118 112 106
-0.671421 0.909968 -1.23529 116 112 104
-0.744508 0.887225 -1.15096 117 112 105
-0.775642 0.928038 -1.06051 135 130 122
-0.679588 0.777778 -1.18858 137 144 152
-0.810297 0.869413 -1.0157 135 132 125
-0.809101 0.888951 -1.03467 132 128 121
-0.848543 0.909214 -0.993484 129 127 121
-0.727369 0.788852 -1.11396 155 154 150
-0.677925 0.910441 -1.16307 133 127 115
-0.808395 0.868617 -1.05332 121 118 112
-0.592207 0.808142 -1.25755 156 152 144
-0.596955 0.81136 -1.24076 138 131 124
-0.5668 0.809481 -1.31209 159 155 148
-0.65018 0.848236 -1.25653 124 120 112
-0.808201 0.769137 -1.03359 148 150 150
-0.800322 0.988415 -1.08757 120 115 108
-0.793939 0.9088 -1.03697 136 131 124
-0.510817 0.948889 -1.35569 130 120 107
-0.707086 0.867958 -1.19477 118 113 106
-0.651346 0.908811 -1.21617 134 128 118
-0.70003 0.872737 -1.22986 122 116 110
-0.749164 0.969649 -1.13289 121 116 108
-0.723224 0.808572 -1.17051 179 183 191
-0.817568 0.906225 -1.00395 137 130 124
-0.71227 0.807351 -1.11834 143 139 130
-0.729597 0.969235 -1.1346 128 124 114
-0.551675 0.909041 -1.31599 134 127 116
-0.656657 0.763697 -1.16258 187 193 199
-0.588614 0.789354 -1.27535 157 153 147
-0.699393 0.881837 -1.22827 122 116 110
-0.74791 0.850631 -1.14932 119 114 108
-0.831965 0.810461 -0.976826 138 135 132
-0.719104 0.819748 -1.09966 140 134 127
-0.784907 0.809491 -1.09165 172 178 180
-0.859383 0.80251 -0.991643 116 114 111
-0.685374 0.967948 -1.23148 113 107 101
-0.721442 0.833996 -1.20959 140 136 138
-0.847932 0.80896 -0.974132 149 149 144
-0.808718 0.929988 -1.03423 132 129 121
-0.778584 0.966472 -1.05967 133 128 119
-0.670656 0.928564 -1.19619 133 127 116
-0.844463 0.849813 -1.01148 119 117 111
-0.705443 0.776177 -1.15007 191 196 201
-0.53123 0.927898 -1.35604 137 131 121
-0.569898 0.888373 -1.35551 127 123 115
-0.785562 0.948668 -1.09187 118 115 108
-0.527165 0.889344 -1.3725 146 142 133
-0.551608 0.948703 -1.33614 135 129 118
-0.645962 0.928623 -1.23275 130 124 114
-0.803526 0.929622 -1.06973 118 115 108
-0.715451 0.989307 -1.13892 127 122 111
-0.733003 0.948039 -1.11763 130 125 115
-0.566295 0.929402 -1.33207 135 129 120
-0.730285 0.849782 -1.19293 119 115 110
-0.620183 0.832827 -1.30486 136 130 123
-0.728886 0.869153 -1.15331 122 117 110
-0.842111 0.953607 -1.02993 128 125 118
-0.688733 0.831399 -1.19139 141 137 131
-0.760375 0.812443 -1.12496 100 106 113
-0.688933 0.794163 -1.19521 152 157 164
-0.591875 0.789718 -1.31508 145 144 138
-0.748792 0.949059 -1.13175 123 118 110
-0.768143 0.948001 -1.09512 128 124 115
-0.61259 0.753557 -1.2126 144 150 162
-0.685453 0.849187 -1.18985 133 127 120
-0.582435 0.826754 -1.35115 143 140 134
-0.656696 0.890051 -1.17938 131 122 111
-0.763971 0.889602 -1.1251 117 114 107
-0.729935 0.848888 -1.1147 138 133 124
-0.826516 0.887757 -1.03213 121 119 113
-0.790033 0.929572 -1.07379 126 122 115
-0.822946 0.950738 -1.04889 120 117 110
-0.571691 0.850769 -1.35403 135 130 123
-0.737773 0.830357 -1.07898 139 133 126
-0.689531 0.789543 -1.15474 152 150 144
-0.531757 0.868719 -1.33583 143 137 127
-0.790174 0.828815 -1.03551 138 135 128
-0.665819 0.798016 -1.23208 173 177 183
-0.767596 0.829281 -1.09464 131 129 123
-0.610704 0.810051 -1.23605 152 148 139
-0.571774 0.869322 -1.35484 129 124 117
-0.850562 0.928179 -0.975682 149 148 142
-0.647567 0.809754 -1.21365 148 144 137
-0.626799 0.755706 -1.19189 196 205 213
-0.732717 0.808338 -1.09647 142 138 130
-0.73002 0.771725 -1.09517 198 201 202
-0.805771 0.969431 -1.07159 121 117 110
-0.587703 0.869516 -1.29319 141 136 127
-0.728442 0.828824 -1.15339 131 127 123
-0.728317 0.928885 -1.15366 124 119 110
-0.672712 0.988353 -1.19757 127 122 111
-0.708795 0.888912 -1.19534 117 111 104
-0.585956 0.811762 -1.33422 139 137 131
-0.651508 0.828958 -1.19654 143 138 129
-0.769511 0.989977 -1.09431 126 121 113
-0.77817 0.806688 -1.01807 142 136 130
-0.575427 0.766571 -1.23206 170 168 161
-0.661729 0.810123 -1.25067 163 165 168
-0.708087 0.889213 -1.15332 134 128 118
-0.649301 0.768447 -1.17471 173 175 174
-0.732907 0.928511 -1.11757 133 129 118
-0.729586 0.868292 -1.19309 117 111 105
-0.833431 0.866961 -0.978369 138 135 129
-0.812753 0.78891 -0.997177 143 141 135
-0.786089 0.829986 -1.09286 124 121 117
-0.848138 0.829098 -0.975241 145 144 140
-0.748063 0.771808 -1.07411 191 195 195
-0.687872 0.848971 -1.21442 120 115 109
-0.731847 0.969453 -1.11867 128 122 113
-0.54976 0.789448 -1.27536 150 146 138
-0.727813 0.989381 -1.15324 123 118 109
-0.774065 0.886872 -1.05859 135 131 123
-0.531983 0.9489 -1.337 131 123 111
-0.863552 0.910879 -0.974348 171 171 165
-0.830396 0.789811 -1.01407 135 135 130
-0.712627 0.787802 -1.11759 148 146 139
-0.528673 0.968237 -1.37378 136 130 119
-0.746675 0.809447 -1.11363 143 142 139
-0.787729 0.869203 -1.05389 133 129 122
-0.767834 0.849351 -1.09469 127 124 117
-0.849647 0.908477 -0.975004 150 149 143
-0.808845 0.808798 -1.01419 140 136 130
-0.827267 0.789024 -1.03221 141 141 138
-0.829438 0.848974 -0.99447 132 130 124
-0.710315 0.849484 -1.13541 138 134 124
-0.710302 0.829589 -1.13489 140 136 127
-0.715489 0.848937 -1.11923 139 134 124
-0.827861 0.808582 -0.993647 135 133 128
-0.713112 0.887987 -1.13674 136 131 121
-0.808554 0.909747 -1.05329 124 121 114
-0.811438 0.828326 -0.997346 135 132 126
-0.767256 0.774522 -1.07432 191 201 203
-0.629531 0.808599 -1.27636 111 116 127
-0.707723 0.909597 -1.17317 126 121 112
-0.534313 0.887829 -1.31643 130 121 111
-0.845618 0.970298 -1.03088 126 123 117
-0.670369 0.90815 -1.19573 134 128 118
-0.589027 0.74993 -1.2533 150 152 151
-0.793074 0.797393 -0.997081 141 135 131
-0.849018 0.809245 -0.994868 126 124 120
-0.672688 0.787645 -1.15793 152 149 141
-0.672167 0.807471 -1.15651 145 140 131
-0.788271 0.789628 -1.07227 134 136 136
-0.789317 0.949357 -1.07433 126 122 115
-0.730603 0.869005 -1.11449 136 132 122
-0.672136 0.968793 -1.19748 130 124 113
-0.728194 0.808776 -1.11321 141 137 129
-0.652161 0.929147 -1.21633 132 126 116
-0.698355 1.00694 -1.16221 127 119 109
-0.751274 0.909438 -1.09601 134 130 120
-0.787112 0.989088 -1.09252 119 115 108
-0.65277 0.949129 -1.21667 131 125 114
-0.791841 0.869687 -1.03643 135 131 124
-0.687969 0.929433 -1.23154 113 107 101
-0.589467 0.907288 -1.33483 122 117 109
-0.686023 0.890247 -1.19219 129 124 115
-0.789059 0.908833 -1.05397 133 129 121
-0.828465 0.768731 -1.01448 165 168 166
-0.566514 0.790168 -1.3304 152 150 144
-0.603725 0.755312 -1.26627 173 170 164
-0.766474 0.829062 -1.07379 137 133 126
-0.645488 0.810191 -1.2321 149 145 140
-0.650859 0.789389 -1.19586 154 152 143
-0.750038 0.829476 -1.13468 129 127 124
-0.720452 0.847718 -1.20726 125 119 114
-0.746247 0.790339 -1.09291 154 153 149
-0.812353 0.908668 -1.01635 136 133 125
-0.7929 0.82604 -1.01815 139 134 128
-0.725997 0.9072 -1.17191 117 111 104
-0.607756 0.753356 -1.23458 153 154 159
-0.753657 0.788424 -1.05789 144 141 134
-0.801382 0.789087 -1.06526 124 122 118
-0.828967 0.968404 -1.01507 130 127 120
-0.72729 0.848331 -1.17123 119 115 108
-0.510721 0.948203 -1.33593 127 117 104
-0.506326 0.928284 -1.33043 127 117 104
-0.829644 0.868497 -0.994807 134 132 125
-0.811352 0.769629 -0.996196 146 143 139
-0.772795 0.867784 -1.05741 136 132 124
-0.767468 0.869908 -1.09337 127 123 116
-0.807839 0.888742 -1.05355 122 119 113
-0.759093 0.96078 -1.08159 134 131 123
-0.767424 0.849365 -1.07362 136 132 124
-0.808218 0.810162 -1.03384 133 131 125
-0.544627 0.949554 -1.39354 121 117 109
-0.554173 0.868306 -1.29566 131 123 112
-0.688167 0.848549 -1.17223 137 132 123
-0.668304 0.772097 -1.17434 170 173 173
-0.788252 0.770278 -1.03311 146 145 140
-0.816673 0.84291 -0.983278 132 126 120
-0.670682 0.769081 -1.15574 173 176 176
-0.786135 0.968512 -1.09213 120 116 109
-0.513533 0.908242 -1.33993 129 120 108
-0.532369 0.908569 -1.33648 134 126 115
-0.531517 0.889089 -1.33634 138 131 120
-0.665387 0.776074 -1.19095 169 172 175
-0.534049 0.908231 -1.31695 128 119 107
-0.55133 0.869209 -1.31693 144 139 129
-0.572052 0.807947 -1.27739 154 149 141
-0.573231 0.829771 -1.27814 143 137 129
-0.646188 0.775403 -1.21104 177 180 183
-0.706876 0.948964 -1.1719 128 122 113
-0.690469 0.909876 -1.23023 112 107 101
-0.709543 0.969226 -1.15584 128 123 112
-0.605763 0.830294 -1.27192 148 144 136
-0.511956 0.950007 -1.37705 138 132 121
-0.512183 0.929301 -1.37614 140 134 124
-0.67182 0.948645 -1.17933 129 122 112
-0.531378 0.948582 -1.35583 137 131 120
-0.531414 0.90898 -1.35659 140 135 126
-0.530529 0.888503 -1.35575 146 141 131
-0.530347 0.86896 -1.35459 150 145 136
-0.551168 0.968621 -1.33599 133 127 115
-0.551492 0.929276 -1.33549 137 131 121
-0.588398 0.830441 -1.33369 136 133 126
-0.569833 0.908436 -1.3148 137 132 122
-0.569385 0.888749 -1.31381 140 135 125
-0.568156 0.868786 -1.31455 145 140 131
-0.571906 0.86886 -1.29686 141 136 126
-0.570791 0.849196 -1.29595 146 142 132
-0.571225 0.829241 -1.29566 153 148 140
-0.570558 0.808411 -1.29515 159 154 147
-0.590517 0.82936 -1.27463 150 147 138
-0.589891 0.80861 -1.27553 155 151 144
-0.609024 0.828495 -1.25535 147 143 134
-0.629928 0.828922 -1.23425 144 139 130
-0.61568 0.809413 -1.21879 146 141 134
-0.629225 0.828495 -1.21603 143 138 129
-0.632645 0.809989 -1.1969 141 135 126
-0.756499 0.845731 -1.05865 138 132 126
-0.690179 0.809204 -1.15547 144 140 131
-0.582836 0.946256 -1.34732 118 113 106
-0.564353 0.909705 -1.33118 137 132 123
-0.806679 0.78919 -1.01339 142 139 133
-0.70994 0.94883 -1.15486 130 125 114
-0.60918 0.870176 -1.29457 133 128 120
-0.64943 0.808988 -1.25488 157 161 164
-0.848984 0.8296 -0.994171 124 122 117
-0.669464 0.987594 -1.17755 121 112 101
-0.7963 0.865314 -1.01653 138 132 126
-0.551586 0.768904 -1.29639 171 169 160
-0.570494 0.768872 -1.27493 166 163 155
-0.571944 0.765818 -1.25707 160 157 149
-0.575789 0.787631 -1.2561 161 160 151
-0.638702 0.97099 -1.20016 122 113 101
-0.647684 0.909164 -1.19703 129 121 110
-0.649769 0.867969 -1.19691 137 132 121
-0.649223 0.967582 -1.19478 123 114 103
-0.649286 0.948495 -1.19336 125 116 105
-0.65063 0.848035 -1.19704 141 136 125
-0.651428 0.809234 -1.17643 142 136 126
-0.686352 0.928808 -1.1921 129 123 114
-0.582683 0.845175 -1.34977 135 131 124
-0.715244 0.89224 -1.12357 138 132 122
-0.55018 0.850556 -1.37475 140 137 129
-0.566598 0.831071 -1.332 151 148 141
-0.69247 0.868444 -1.15739 138 134 124
-0.845391 0.888476 -1.01139 122 120 114
-0.770674 0.929821 -1.07532 133 129 121
-0.508356 0.929223 -1.39377 141 136 127
-0.507901 0.909376 -1.39304 143 139 130
-0.528262 0.949094 -1.37289 138 132 122
-0.52669 0.909311 -1.37277 142 136 128
-0.545885 0.908994 -1.35128 139 134 125
-0.549961 0.889064 -1.33563 143 138 129
-0.548949 0.84919 -1.33396 154 150 141
-0.570534 0.928599 -1.31573 136 130 120
-0.568335 0.849755 -1.31354 149 144 136
-0.568092 0.829841 -1.31307 156 152 145
-0.846931 0.929084 -1.01303 123 120 115
-0.568568 0.771921 -1.29364 166 162 156
-0.587485 0.849683 -1.29273 146 142 133
-0.587074 0.82873 -1.29236 152 148 141
-0.694755 0.926732 -1.1438 131 125 115
-0.604422 0.810668 -1.27106 151 146 139
-0.609586 0.808678 -1.25529 152 148 141
-0.718752 0.96483 -1.12102 130 121 112
-0.563757 0.928274 -1.37126 120 116 109
-0.75168 0.991089 -1.08105 127 120 111
-0.628856 0.809546 -1.23383 150 146 138
-0.647557 0.829165 -1.21408 142 138 129
-0.653044 0.969269 -1.2179 130 123 112
-0.649263 0.849102 -1.21494 139 134 125
-0.712263 0.849188 -1.17565 123 119 112
-0.651287 0.80917 -1.19559 148 144 134
-0.667467 0.968934 -1.21263 128 122 111
-0.666823 0.949577 -1.21195 130 123 113
-0.666011 0.890067 -1.21125 131 125 117
-0.665262 0.870404 -1.21062 133 127 119
-0.668115 0.849211 -1.19391 138 133 124
-0.664437 0.829459 -1.21011 139 135 127
-0.668161 0.828697 -1.19297 141 136 127
-0.668959 0.889082 -1.19475 135 129 119
-0.668438 0.869917 -1.19464 136 130 121
-0.667516 0.809891 -1.19211 144 139 132
-0.747902 0.829327 -1.09397 138 134 126
-0.686516 0.790088 -1.17211 151 152 152
-0.585153 0.889769 -1.31184 137 132 123
-0.657832 0.821093 -1.1631 139 133 123
-0.684778 0.869366 -1.19126 130 125 117
-0.667238 0.791106 -1.19197 155 155 152
-0.775624 0.848672 -1.03552 137 131 125
-0.727128 0.776222 -1.13346 198 207 214
-0.584839 0.929127 -1.31121 133 127 118
-0.565937 0.869194 -1.33329 143 138 131
-0.808145 0.774023 -1.05149 170 172 177
-0.61316 0.787708 -1.21619 157 153 147
-0.630484 0.808907 -1.21613 150 146 137
-0.65419 0.828415 -1.17631 138 131 121
-0.707315 0.969983 -1.17342 126 121 111
-0.65638 0.908841 -1.18185 127 118 107
-0.656985 0.869262 -1.17856 133 125 115
-0.655269 0.848168 -1.17855 136 129 119
-0.666983 0.968566 -1.1786 125 116 105
-0.671855 0.90885 -1.17744 133 127 116
-0.672402 0.888774 -1.17689 135 130 119
-0.672746 0.868692 -1.17643 137 133 122
-0.671979 0.848931 -1.17651 140 135 125
-0.671741 0.829126 -1.17514 143 138 129
-0.570303 0.949782 -1.35485 124 119 111
-0.545241 0.930033 -1.39337 122 119 112
-0.809529 0.828865 -1.01425 137 133 127
-0.669416 0.848726 -1.23509 122 117 110
-0.801804 0.850342 -1.06947 117 114 108
-0.744097 0.989853 -1.14974 117 111 104
-0.695323 0.946639 -1.15728 133 127 117
-0.59126 0.948362 -1.33459 120 114 107
-0.594275 0.788682 -1.24084 159 157 148
-0.724487 0.94971 -1.19197 111 105 98
-0.526743 0.868998 -1.37195 152 148 140
-0.770546 0.989144 -1.05617 127 121 111
-0.546604 0.949874 -1.35343 136 130 120
-0.546085 0.929101 -1.35317 137 132 122
-0.545321 0.888919 -1.3514 143 138 129
-0.566527 0.949208 -1.33207 133 127 117
-0.563835 0.88968 -1.33097 140 135 126
-0.585275 0.950498 -1.31162 132 125 115
-0.604959 0.790161 -1.27143 153 150 146
-0.687387 0.969121 -1.1928 127 120 111
-0.686334 0.94996 -1.19332 129 122 113
-0.670214 0.790297 -1.17552 149 147 140
-0.69071 0.948532 -1.17593 131 125 115
-0.689693 0.928116 -1.17551 132 126 116
-0.689647 0.909192 -1.174 133 127 117
-0.688306 0.869187 -1.17378 135 130 120
-0.687835 0.828565 -1.17258 139 134 126
-0.690974 0.969213 -1.17597 130 124 113
-0.830928 0.889369 -0.99552 137 134 127
-0.620227 0.788498 -1.26633 93 103 135
-0.691999 0.848973 -1.15528 139 135 125
-0.691001 0.829094 -1.15544 142 138 129
-0.746182 0.829018 -1.11435 130 128 120
-0.730171 0.989065 -1.13553 126 121 112
-0.697933 0.789485 -1.11581 141 135 128
-0.768236 0.910691 -1.09304 128 124 117
-0.668312 0.828084 -1.2359 134 131 128
-0.794259 0.845368 -1.01816 136 131 125
-0.849668 0.869405 -0.9936 125 122 117
-0.609243 0.7895 -1.25346 154 151 147
-0.546432 0.869148 -1.35166 147 143 135
-0.567101 0.769129 -1.31364 165 164 158
-0.607358 0.769464 -1.25433 148 149 151
-0.60865 0.76977 -1.23513 148 152 156
-0.611342 0.789624 -1.23544 154 152 145
-0.623995 0.829455 -1.25097 146 142 134
-0.623649 0.808912 -1.2502 149 145 139
-0.61355 0.769387 -1.19678 152 157 164
-0.644911 0.828652 -1.23089 142 137 130
-0.630396 0.789334 -1.21609 157 155 147
-0.668555 0.808535 -1.21343 151 150 148
-0.68657 0.909078 -1.19091 129 124 114
-0.748212 0.809356 -1.13396 176 179 184
-0.692915 0.811824 -1.19523 147 148 148
-0.66924 0.791078 -1.13849 140 136 129
-0.707814 0.98941 -1.17408 125 119 110
-0.708168 0.869374 -1.17283 125 120 113
-0.710224 0.988927 -1.15615 127 121 111
-0.709384 0.928773 -1.15402 132 126 116
-0.708886 0.909061 -1.15411 134 128 118
-0.705986 0.829165 -1.15346 137 132 124
-0.705282 0.810433 -1.15167 142 139 132
-0.692027 0.789515 -1.1371 146 142 135
-0.688387 0.990674 -1.21236 121 115 106
-0.607212 0.891026 -1.31401 120 115 108
-0.788778 0.80947 -1.07517 125 124 120
-0.566593 0.847642 -1.33211 150 146 139
-0.819137 0.783406 -0.97972 143 137 133
-0.730037 0.788534 -1.09738 147 144 138
-0.712345 0.931236 -1.11975 131 122 113
-0.774573 0.906616 -1.05937 136 132 124
-0.69536 0.829964 -1.139 142 137 128
-0.812787 0.809378 -0.996348 139 136 130
-0.752859 0.989114 -1.09765 128 123 114
-0.708746 0.789887 -1.13423 154 153 149
-0.526473 0.84984 -1.37233 157 154 148
-0.546256 0.849391 -1.3516 155 151 144
-0.545342 0.82939 -1.3511 162 159 152
-0.750647 0.768793 -1.05576 189 192 194
-0.603165 0.770262 -1.27171 165 161 155
-0.693289 0.888672 -1.15746 136 131 121
-0.694481 0.927998 -1.15875 134 130 119
-0.694369 0.909128 -1.15747 136 131 121
-0.756487 0.787101 -1.04011 145 139 133
-0.693311 0.808254 -1.13882 143 139 130
-0.71351 0.927238 -1.13682 134 129 118
-0.712917 0.908044 -1.13765 136 131 121
-0.711614 0.868603 -1.13568 137 132 122
-0.753103 0.969505 -1.09854 129 124 115
-0.757609 0.931934 -1.08134 136 132 124
-0.728764 0.949417 -1.13432 129 125 115
-0.728155 0.928333 -1.1344 131 127 117
-0.727041 0.889938 -1.13247 133 128 119
-0.713669 0.82873 -1.11903 140 135 126
-0.73113 0.888971 -1.11645 134 129 120
-0.728642 0.828984 -1.11323 139 135 126
-0.749714 0.989293 -1.11481 125 120 111
-0.611551 0.767678 -1.21696 158 160 161
-0.829468 0.850029 -1.01373 127 125 119
-0.583369 0.868059 -1.3477 130 125 117
-0.753488 0.774494 -1.03928 154 149 145
-0.58689 0.871785 -1.31285 137 132 124
-0.822313 0.931158 -1.04696 122 118 111
-0.84997 0.888447 -0.97371 153 153 147
-0.589001 0.748422 -1.23395 155 157 158
-0.632225 0.789406 -1.19783 153 149 141
-0.650723 0.789218 -1.17746 152 148 140
-0.748903 0.989895 -1.13377 120 115 107
-0.746992 0.929686 -1.11387 131 127 117
-0.73282 0.828468 -1.09771 140 136 128
-0.746784 0.889732 -1.11251 131 126 118
-0.733096 0.848405 -1.09876 139 135 126
-0.752747 0.928034 -1.09671 133 128 119
-0.750422 0.889172 -1.0946 133 129 120
-0.747943 0.848223 -1.09378 137 133 125
-0.734089 0.787714 -1.07644 146 141 136
-0.767756 0.969 -1.1133 119 114 107
-0.747168 0.809545 -1.09392 141 137 130
-0.768298 0.968462 -1.09448 126 122 114
-0.752358 0.848992 -1.07779 138 133 125
-0.752336 0.828699 -1.0773 139 136 128
-0.751574 0.809443 -1.07794 142 138 130
-0.752388 0.789891 -1.07574 147 145 138
-0.808818 0.989695 -1.05416 123 120 113
-0.669225 0.968734 -1.23244 121 115 106
-0.78647 0.829378 -1.05281 136 133 126
-0.790638 0.849663 -1.03605 136 132 124
-0.526577 0.949822 -1.39108 137 131 122
-0.527349 0.928426 -1.39085 136 130 122
-0.528933 0.908822 -1.39395 135 130 122
-0.785341 0.869912 -1.09273 116 113 106
-0.77691 0.871648 -1.04047 137 131 124
-0.550518 0.948441 -1.37737 127 122 113
-0.584797 0.909025 -1.3121 136 130 121
-0.591576 0.767847 -1.23662 156 156 153
-0.674286 0.868735 -1.15512 136 130 119
-0.696001 0.96555 -1.16104 130 126 115
-0.671162 0.804522 -1.13959 140 134 124
-0.696271 0.984937 -1.16083 128 123 111
-0.688718 0.887754 -1.14044 137 128 119
-0.695515 0.91038 -1.13813 133 127 116
-0.735755 0.99006 -1.10306 124 117 107
-0.727203 0.990392 -1.17018 116 110 103
-0.76809 0.808758 -1.09401 149 150 150
-0.782743 0.98898 -1.10822 122 116 109
-0.806677 0.769508 -1.01142 146 145 140
-0.744015 0.834412 -1.18337 176 177 183
-0.767196 0.889605 -1.09279 129 125 117
-0.620948 0.768796 -1.25042 161 162 164
-0.628273 0.79144 -1.23406 156 154 149
-0.615978 0.767447 -1.18374 175 174 176
-0.725927 0.84899 -1.13249 134 129 121
-0.72562 0.80989 -1.13023 142 139 133
-0.772568 0.968393 -1.07737 129 125 117
-0.772218 0.948803 -1.0766 131 126 118
-0.755813 0.888063 -1.07824 136 131 124
-0.768396 0.868657 -1.07437 134 130 122
-0.76615 0.809037 -1.07268 140 137 129
-0.791745 0.988952 -1.05662 129 124 116
-0.790475 0.969068 -1.05659 130 126 118
-0.773153 0.849181 -1.05713 137 133 125
-0.771232 0.808582 -1.05509 142 138 131
-0.769989 0.788779 -1.05498 143 140 134
-0.789437 0.929278 -1.05507 133 129 121
-0.789104 0.888536 -1.05356 133 129 122
-0.787511 0.849213 -1.0525 135 131 124
-0.795206 0.988769 -1.04229 132 127 119
-0.795536 0.969401 -1.04022 133 128 120
-0.794564 0.947965 -1.04018 134 129 121
-0.794379 0.928694 -1.03904 135 130 122
-0.792804 0.889059 -1.03608 136 131 124
-0.789283 0.808605 -1.03523 141 137 130
-0.809237 0.949235 -1.03497 132 128 121
-0.795497 0.812338 -0.999031 140 134 128
-0.806108 0.989367 -1.07203 120 116 109
-0.62476 0.785844 -1.25184 132 136 142
-0.648244 0.771957 -1.19399 180 183 184
-0.706436 0.790191 -1.15161 169 171 171
-0.73144 0.769022 -1.07457 176 177 178
-0.786662 0.809392 -1.05335 136 133 126
-0.808882 0.909427 -1.03425 132 129 122
-0.814442 0.968734 -1.01873 133 129 122
-0.812858 0.928536 -1.01749 135 131 124
-0.811312 0.888949 -1.0162 137 134 126
-0.809811 0.849078 -1.01538 135 132 125
-0.82819 0.968769 -1.03442 122 119 112
-0.793981 0.789677 -1.01887 144 142 134
-0.789789 0.772248 -0.994939 144 140 135
-0.833438 0.949668 -0.998841 133 130 123
-0.831409 0.909834 -0.996497 136 133 126
-0.749942 0.890148 -1.13333 118 114 107
-0.736767 0.908486 -1.10281 138 133 124
-0.725261 0.773658 -1.11267 199 203 206
-0.704836 0.829174 -1.19369 127 123 119
-0.5508 0.929609 -1.37606 125 121 113
-0.551052 0.909768 -1.3764 128 123 116
-0.588796 0.749721 -1.27444 161 159 155
-0.609132 0.890203 -1.29407 132 127 119
-0.669866 0.930153 -1.23453 119 113 106
-0.689888 0.970267 -1.21399 118 112 104
-0.726722 0.790437 -1.13279 173 176 179
-0.746867 0.869191 -1.11217 131 127 119
-0.746873 0.848575 -1.11232 130 127 120
-0.789062 0.968782 -1.07406 125 121 114
-0.788229 0.868672 -1.07327 124 121 114
-0.786713 0.788949 -1.05381 134 132 127
-0.808108 0.96901 -1.05481 124 121 113
-0.808591 0.949244 -1.05514 125 121 114
-0.809346 0.929575 -1.05451 123 119 112
-0.808575 0.869097 -1.03345 133 129 122
-0.807951 0.848896 -1.0335 132 129 122
-0.827691 0.988954 -1.03332 123 120 113
-0.808225 0.82921 -1.03417 132 129 123
-0.827923 0.949302 -1.03299 124 121 114
-0.82789 0.929429 -1.03304 125 121 115
-0.828799 0.907904 -1.01484 131 128 121
-0.829256 0.887927 -1.01419 130 127 120
-0.793352 0.769729 -1.01582 149 148 143
-0.829307 0.869279 -1.01371 128 125 119
-0.829508 0.830032 -1.01349 128 126 120
-0.847132 0.949659 -1.01366 123 120 114
-0.828427 0.828951 -0.994205 133 131 126
-0.827222 0.789048 -0.992399 139 137 133
-0.848291 0.92936 -0.99343 129 127 120
-0.849573 0.889291 -0.994156 127 124 119
-0.849472 0.849593 -0.993748 124 122 116
-0.831134 0.789634 -0.977133 141 139 135
-0.758763 0.861485 -1.06087 135 129 122
-0.80179 0.774435 -1.06558 160 160 160
-0.630957 0.770095 -1.19604 167 168 165
-0.712161 0.769159 -1.09739 171 172 169
-0.753849 0.807534 -1.05757 140 136 128
-0.606987 0.870565 -1.31373 121 116 109
-0.813257 0.84784 -0.998592 136 132 126
-0.83433 0.968467 -0.998827 131 128 121
-0.832476 0.929244 -0.997037 134 132 125
-0.831898 0.848482 -0.97707 135 132 127
-0.83235 0.829992 -0.977406 135 132 128
-0.8491 0.868743 -0.973386 153 153 147
-0.834784 0.830949 -0.960772 133 129 126
-0.707464 0.774894 -1.13184 178 180 180
-0.711338 0.771205 -1.11511 190 192 192
-0.76873 0.77202 -1.054 159 162 160
-0.551164 0.889047 -1.37672 130 126 118
-0.569769 0.928293 -1.35613 125 120 112
-0.57007 0.907827 -1.35602 125 120 113
-0.568072 0.810459 -1.33328 153 151 144
-0.590042 0.889195 -1.33352 123 118 111
-0.588687 0.869713 -1.33456 127 122 115
-0.589689 0.829845 -1.31743 142 138 130
-0.590652 0.808969 -1.31789 142 139 133
-0.61206 0.847919 -1.29655 132 127 120
-0.612099 0.82889 -1.29666 136 134 129
-0.631066 0.828468 -1.2761 130 129 126
-0.689509 0.948663 -1.21413 117 112 104
-0.689385 0.928987 -1.21458 117 111 104
-0.708514 0.969564 -1.19375 116 110 103
-0.743879 0.970048 -1.14946 115 109 102
-0.749515 0.911015 -1.13414 120 115 108
-0.763021 0.989194 -1.12898 114 109 102
-0.76364 0.970327 -1.12795 117 112 105
-0.767536 0.94912 -1.11388 119 115 108
-0.767248 0.910761 -1.11274 118 114 107
-0.780327 0.970402 -1.10825 120 113 107
-0.78564 0.929851 -1.09041 118 114 107
-0.785313 0.910904 -1.0908 117 113 106
-0.78899 0.848867 -1.0732 124 121 115
-0.789244 0.770755 -1.05214 151 152 151
-0.825027 0.970071 -1.04999 123 120 113
-0.827854 0.908685 -1.03267 122 119 113
-0.845556 0.909848 -1.01193 124 122 116
-0.82973 0.809788 -1.0138 129 128 123
-0.863766 0.909596 -0.993106 138 137 131
-0.671493 0.868943 -1.23512 119 114 107
-0.744153 0.908008 -1.15049 115 111 104
-0.69412 0.86548 -1.14331 139 134 124
-0.694877 0.847586 -1.13863 141 136 126
-0.73651 0.890226 -1.09976 137 133 124
-0.732145 0.810363 -1.07966 141 135 128
-0.756632 0.90974 -1.07849 137 132 124
-0.751038 0.825931 -1.05976 140 134 127
-0.772161 0.828864 -1.03684 139 134 128
-0.772263 0.768618 -1.01298 143 139 134
-0.798245 0.902892 -1.02333 139 133 127
-0.797327 0.827011 -1.00012 135 129 123
-0.836757 0.903572 -0.98072 140 137 131
-0.861731 0.925319 -1.0067 138 136 131
-0.593298 0.766551 -1.21934 129 135 143
-0.809444 0.78993 -1.03453 132 132 127
-0.841231 0.930839 -1.02724 126 123 117
-0.844521 0.868923 -1.01111 121 118 113
-0.861121 0.87245 -0.987543 163 164 158
-0.73848 0.920665 -1.10362 137 134 126
-0.758667 0.949541 -1.08074 135 132 125
-0.838722 0.920602 -0.978007 138 137 131
-0.761977 0.776993 -1.08792 140 152 157
-0.687978 0.829311 -1.21386 122 119 115
-0.803223 0.87009 -1.06891 116 112 106
-0.74115 0.827791 -1.14892 140 138 137
-0.583398 0.776674 -1.33214 162 164 160
-0.624177 0.811903 -1.292 126 128 133
-0.689596 0.908682 -1.21444 114 109 102
-0.599609 0.847136 -1.3266 130 126 119
-0.730563 0.831639 -1.19582 169 170 175
-0.68601 0.77615 -1.17391 161 167 172
-0.759575 0.912803 -1.12997 115 112 105
-0.745623 0.790665 -1.11251 188 193 196
-0.744254 0.775455 -1.11194 166 176 183
-0.764682 0.791631 -1.09181 170 175 178
-0.789699 0.829669 -1.07336 124 121 114
-0.848956 0.788953 -0.995626 140 139 135
-0.708746 0.810609 -1.17407 158 158 159
-0.664804 0.870289 -1.24839 118 113 106
-0.74487 0.963004 -1.16899 110 104 97
-0.668823 0.793382 -1.21393 171 173 177
-0.70577 0.794693 -1.17149 181 186 190
-0.730818 0.848941 -1.15518 120 116 109
-0.748609 0.870217 -1.13102 119 116 109
-0.826035 0.848264 -1.03198 120 117 112
-0.843538 0.828869 -1.01059 120 118 113
-0.8446 0.807158 -1.01172 123 120 117
-0.644541 0.778706 -1.22975 174 183 190
-0.665432 0.778025 -1.20465 180 189 196
-0.78732 0.773674 -1.07064 149 153 153
-0.768803 0.890726 -1.11303 116 112 105
-0.807177 0.789447 -1.0521 128 127 124
-0.825727 0.828564 -1.03195 121 119 113
-0.825958 0.808619 -1.0333 123 120 115
-0.789389 0.755155 -1.04606 206 207 209
-0.685674 0.948985 -1.23302 114 108 101
-0.545269 0.909242 -1.39342 126 121 115
-0.563862 0.947871 -1.37118 118 114 107
-0.564115 0.908143 -1.37035 123 119 112
-0.564286 0.888094 -1.36956 129 124 117
-0.564389 0.84868 -1.37061 138 134 127
-0.570455 0.829545 -1.35427 139 137 131
-0.582644 0.908333 -1.34768 120 115 108
-0.588918 0.848843 -1.3348 133 128 121
-0.607714 0.849991 -1.31244 127 122 116
-0.606726 0.830234 -1.31258 133 130 124
-0.605606 0.811239 -1.31104 132 131 128
-0.650309 0.828838 -1.25677 131 129 125
-0.667252 0.810047 -1.23585 161 164 167
-0.688911 0.869721 -1.21524 118 113 106
-0.686681 0.81058 -1.21184 146 148 150
-0.682579 0.797529 -1.20992 176 181 186
-0.708061 0.90839 -1.1952 115 110 103
-0.704533 0.848722 -1.19374 120 116 109
-0.712516 0.831104 -1.17742 128 125 121
-0.726106 0.927848 -1.17155 116 111 104
-0.72403 0.795093 -1.15307 188 193 200
-0.744385 0.950829 -1.14817 114 109 103
-0.749898 0.796257 -1.12873 186 192 199
-0.769793 0.869188 -1.11369 116 113 106
-0.768979 0.849483 -1.11449 119 115 108
-0.765806 0.810872 -1.11256 169 173 176
-0.785645 0.890086 -1.09206 114 111 104
-0.78529 0.849891 -1.09247 117 114 107
-0.619973 0.853129 -1.30504 128 122 114
-0.762354 0.86692 -1.13089 118 115 108
-0.582487 0.888857 -1.34821 125 120 112
-0.585822 0.791646 -1.3342 150 148 144
-0.590207 0.772554 -1.31403 154 155 152
-0.599705 0.862799 -1.32838 129 123 116
-0.599938 0.834101 -1.33051 139 136 128
-0.599572 0.813205 -1.3288 149 146 141
-0.60438 0.791362 -1.31169 137 138 135
-0.643695 0.830983 -1.27126 132 131 128
-0.642638 0.812605 -1.27065 140 145 149
-0.663133 0.930404 -1.25011 113 108 101
-0.66482 0.910114 -1.24899 113 109 102
-0.664874 0.889736 -1.24798 117 111 104
-0.663917 0.849337 -1.24872 121 117 110
-0.664834 0.830284 -1.25133 141 140 139
-0.686064 0.868843 -1.23054 116 110 104
-0.683848 0.848603 -1.2302 118 115 109
-0.68327 0.830563 -1.23037 144 143 142
-0.682422 0.811805 -1.22758 162 164 167
-0.70571 0.809069 -1.19263 161 165 169
-0.725856 0.827617 -1.17095 132 129 128
-0.726302 0.888924 -1.17341 116 112 105
-0.726007 0.869957 -1.1733 117 113 106
-0.742766 0.804668 -1.14877 190 195 203
-0.743361 0.929784 -1.15058 115 110 103
-0.746595 0.86873 -1.14826 118 113 106
-0.766416 0.798493 -1.10937 164 171 178
-0.783664 0.796355 -1.09264 239 245 253
-0.803846 0.889969 -1.06948 114 111 105
-0.802162 0.829818 -1.06854 118 116 110
-0.80121 0.810593 -1.06714 121 118 114
-0.821472 0.908806 -1.04708 115 111 105
-0.820453 0.84814 -1.04505 116 113 108
-0.826067 0.774755 -1.03373 176 180 177
-0.703222 0.965648 -1.21154 112 106 99
-0.706036 0.948989 -1.21166 112 106 99
-0.705936 0.928348 -1.21187 113 107 100
-0.70777 0.909169 -1.21187 114 108 102
-0.70884 0.889502 -1.21296 117 111 104
-0.709885 0.868591 -1.21306 117 111 105
-0.710082 0.850424 -1.21311 126 122 118
-0.720591 0.989502 -1.18576 113 108 101
-0.722375 0.964822 -1.19012 112 106 99
-0.725613 0.929005 -1.19134 113 107 101
-0.726729 0.908901 -1.19122 114 108 102
-0.729691 0.888058 -1.19245 114 108 102
-0.763063 0.850206 -1.13171 120 115 109
-0.763381 0.83477 -1.12756 120 116 113
-0.779281 0.823789 -1.11453 150 152 158
-0.785592 0.813685 -1.10643 238 244 251
-0.600146 0.925126 -1.32643 120 114 107
-0.599622 0.906505 -1.32673 121 115 108
-0.608034 0.792597 -1.29951 117 122 126
-0.702563 0.797798 -1.18495 95 100 105
-0.761287 0.950265 -1.13154 113 110 103
-0.760431 0.931541 -1.13076 114 111 104
-0.779741 0.948453 -1.10786 114 110 103
-0.711232 0.834139 -1.2119 156 158 161
