ply
format ascii 1.0
comment Created by Open3D
element vertex 294
property double x
property double y
property double z
property uchar red
property uchar green
property uchar blue
end_header
-0.366172 -0.230309 1.9505 145 149 150
-0.289353 -0.250679 1.92472 63 71 79
-0.250509 -0.295221 1.9866 71 79 89
-0.250669 -0.328196 1.96677 57 64 73
-0.349664 -0.268762 1.94053 103 110 115
-0.170744 -0.351269 1.84823 46 50 57
-0.231319 -0.328754 1.90428 58 66 78
-0.190344 -0.373768 1.88611 48 55 66
-0.332282 -0.235611 1.96652 75 82 92
-0.171673 -0.371814 1.88548 77 82 90
-0.130744 -0.370952 1.86548 52 59 68
-0.191452 -0.31329 1.92377 72 79 89
-0.167731 -0.310976 1.86304 63 67 72
-0.224415 -0.371477 1.89229 47 55 66
-0.328742 -0.286035 1.90962 101 107 115
-0.24869 -0.349831 1.92525 58 64 71
-0.232623 -0.332908 1.96438 57 64 73
-0.287938 -0.297565 1.98505 77 84 94
-0.291637 -0.288359 1.9112 52 60 72
-0.208434 -0.351844 1.89311 65 73 83
-0.208744 -0.313541 1.92473 70 77 88
-0.328281 -0.274227 1.91216 54 62 73
-0.148101 -0.329745 1.86111 55 60 65
-0.1917 -0.3144 1.95107 48 56 70
-0.244027 -0.347111 1.95097 194 197 198
-0.230063 -0.307062 1.98293 128 134 142
-0.348343 -0.310869 1.93617 119 126 131
-0.192802 -0.32246 1.92008 103 111 121
-0.324374 -0.237274 1.95248 66 74 82
-0.210183 -0.304565 1.97853 104 111 121
-0.289282 -0.314171 1.98534 68 76 84
-0.268829 -0.350555 1.92372 56 62 70
-0.288807 -0.318087 1.90669 104 108 114
-0.20983 -0.352094 1.94624 81 86 93
-0.251739 -0.311076 1.98018 55 62 73
-0.194509 -0.394018 1.93284 47 51 58
-0.168339 -0.389812 1.84885 41 46 55
-0.347496 -0.271509 1.91285 56 63 74
-0.362444 -0.310547 1.93138 146 149 148
-0.2299 -0.389109 1.91724 45 51 58
-0.22898 -0.272692 1.92599 71 78 86
-0.191543 -0.372196 1.94647 89 93 99
-0.226086 -0.347365 1.94387 75 81 88
-0.307591 -0.24773 1.94724 56 65 75
-0.222606 -0.349653 1.89458 49 58 70
-0.211869 -0.268416 1.94458 72 77 83
-0.219478 -0.319908 1.88873 58 64 71
-0.268842 -0.288038 1.92411 53 61 72
-0.268492 -0.29563 1.98768 64 72 82
-0.209825 -0.328798 1.85801 58 64 72
-0.210853 -0.352791 1.92541 64 69 76
-0.286953 -0.334859 1.95106 110 114 120
-0.128272 -0.330661 1.88464 52 60 69
-0.349499 -0.311583 1.92903 93 98 103
-0.191557 -0.283845 1.92689 55 63 75
-0.227985 -0.326211 1.8891 53 60 68
-0.17017 -0.410494 1.86437 43 47 54
-0.210886 -0.329657 1.89042 51 59 69
-0.329932 -0.232174 1.92281 79 85 92
-0.206841 -0.307355 1.96464 85 93 103
-0.215688 -0.295654 1.98474 72 78 88
-0.129351 -0.351769 1.87874 49 57 66
-0.210121 -0.372329 1.92947 50 55 62
-0.167589 -0.314632 1.95356 48 56 70
-0.348526 -0.236088 1.97745 58 68 77
-0.348888 -0.249031 1.91923 66 73 83
-0.187289 -0.388407 1.94072 58 62 68
-0.268188 -0.330133 1.92623 70 75 83
-0.190737 -0.348811 1.90894 64 70 82
-0.302825 -0.315578 1.91227 123 128 134
-0.267298 -0.312132 1.9658 88 94 101
-0.244362 -0.34103 1.95798 40 46 55
-0.298504 -0.235296 1.9295 148 148 146
-0.245312 -0.321574 1.97678 46 54 66
-0.288758 -0.312318 1.96801 91 97 105
-0.233746 -0.259688 1.94612 88 88 87
-0.208209 -0.390752 1.92441 50 55 63
-0.350958 -0.235952 1.94981 78 88 95
-0.369925 -0.216784 1.92613 105 109 114
-0.188927 -0.313555 1.8525 55 60 68
-0.168972 -0.289848 1.9059 58 65 73
-0.168578 -0.328268 1.92195 93 100 108
-0.17131 -0.316087 1.89001 57 64 73
-0.36823 -0.267762 1.92123 58 64 76
-0.150768 -0.313713 1.89022 55 63 72
-0.287013 -0.269156 1.92327 96 103 111
-0.350859 -0.271243 1.92583 111 116 124
-0.148698 -0.274588 1.90636 61 69 76
-0.218232 -0.331686 1.95041 46 55 67
-0.154573 -0.317674 1.8679 67 72 76
-0.30851 -0.314365 1.96684 86 93 100
-0.270469 -0.297699 1.95917 72 81 88
-0.160069 -0.322366 1.85691 55 60 65
-0.207909 -0.271497 1.92337 56 65 74
-0.35051 -0.215836 1.92412 112 116 120
-0.250427 -0.37061 1.9174 48 54 62
-0.330045 -0.256644 1.91432 58 66 76
-0.347614 -0.233567 1.91537 65 73 83
-0.168738 -0.274241 1.92029 76 81 84
-0.324639 -0.314226 1.96989 70 76 83
-0.149614 -0.365292 1.90937 53 60 72
-0.267974 -0.311234 1.94477 63 70 78
-0.311898 -0.236412 1.92416 85 90 94
-0.289851 -0.291219 1.94478 71 80 87
-0.310626 -0.272916 1.9127 60 68 78
-0.372888 -0.229666 1.91209 67 75 85
-0.117167 -0.369078 1.86505 46 56 68
-0.175562 -0.295476 1.86301 156 162 165
-0.247652 -0.330633 1.94468 74 80 87
-0.144072 -0.366672 1.87583 48 58 69
-0.167851 -0.344373 1.91788 107 114 123
-0.303594 -0.310196 1.93863 57 64 74
-0.369355 -0.230893 1.92326 79 88 97
-0.307505 -0.328891 1.92106 50 59 69
-0.310657 -0.271818 1.94853 92 100 108
-0.353213 -0.214662 1.91216 121 127 132
-0.1107 -0.353247 1.87176 64 72 82
-0.309981 -0.28529 1.90818 52 60 72
-0.228925 -0.314182 1.90671 55 63 72
-0.173995 -0.335112 1.91327 46 54 68
-0.350931 -0.242024 1.9808 62 69 78
-0.295805 -0.279154 1.95204 76 85 92
-0.19499 -0.268044 1.91245 51 61 70
-0.229243 -0.313247 1.94574 89 96 104
-0.209145 -0.284675 1.92532 54 62 74
-0.28821 -0.326811 1.96242 72 78 86
-0.268064 -0.341573 1.94717 131 135 140
-0.260436 -0.322195 1.89191 58 64 71
-0.268428 -0.333449 1.9465 65 71 79
-0.151191 -0.37233 1.87164 66 74 85
-0.149071 -0.28989 1.90195 58 65 73
-0.135878 -0.380435 1.85537 40 45 53
-0.168911 -0.352683 1.90768 45 53 66
-0.270006 -0.3139 1.92765 72 79 87
-0.250389 -0.316428 1.94357 87 94 101
-0.328836 -0.248861 1.91898 58 67 77
-0.140965 -0.359772 1.85911 60 65 75
-0.349865 -0.247181 1.96647 54 63 73
-0.366882 -0.249312 1.92307 107 114 122
-0.312023 -0.254765 1.96287 72 81 89
-0.243415 -0.270077 1.94017 73 81 88
-0.208025 -0.292478 1.96027 51 59 69
-0.188601 -0.292019 1.96616 58 64 74
-0.187164 -0.293006 1.95352 79 87 95
-0.193162 -0.35071 1.95893 45 52 65
-0.365891 -0.248837 1.94769 143 147 147
-0.350445 -0.251548 1.94629 104 111 118
-0.33042 -0.243464 1.958 71 81 89
-0.330325 -0.253713 1.94784 80 89 96
-0.308802 -0.25025 1.92122 57 65 74
-0.276463 -0.257059 1.91404 49 59 70
-0.269874 -0.270017 1.92633 70 78 89
-0.253749 -0.257459 1.92543 89 94 99
-0.189903 -0.273209 1.92525 60 68 75
-0.17398 -0.277084 1.90678 54 63 73
-0.143273 -0.290095 1.89301 66 73 80
-0.131437 -0.29591 1.89229 50 60 70
-0.188541 -0.35186 1.89003 71 78 89
-0.236092 -0.321675 1.97861 47 55 67
-0.249675 -0.370936 1.9081 55 59 67
-0.360168 -0.272381 1.91517 55 63 73
-0.229619 -0.35116 1.92673 71 76 82
-0.228708 -0.345522 1.96021 79 86 92
-0.26869 -0.309474 1.98397 68 76 85
-0.38451 -0.25333 1.92739 96 104 113
-0.34879 -0.228852 1.92077 78 86 94
-0.334886 -0.218043 1.9282 169 170 170
-0.293715 -0.269062 1.91306 51 60 71
-0.286901 -0.28809 1.92168 55 63 74
-0.290046 -0.314182 1.92854 63 70 78
-0.272101 -0.315543 1.9076 57 64 75
-0.249417 -0.270815 1.92612 64 72 82
-0.249023 -0.28993 1.92732 53 61 73
-0.249138 -0.329795 1.93012 52 59 69
-0.230985 -0.289733 1.92479 57 65 74
-0.230772 -0.333225 1.94397 58 65 74
-0.229698 -0.267733 1.94183 68 73 77
-0.227362 -0.282718 1.93732 55 63 73
-0.213823 -0.31272 1.94921 75 83 92
-0.20789 -0.29678 1.94922 45 54 64
-0.209793 -0.335781 1.9632 61 69 79
-0.206074 -0.348577 1.96057 53 60 70
-0.201461 -0.278103 1.96113 104 100 100
-0.189045 -0.308821 1.96218 62 71 82
-0.188956 -0.331106 1.96478 54 62 73
-0.149125 -0.351699 1.85184 47 52 59
-0.309267 -0.311131 1.9257 63 71 79
-0.308228 -0.328294 1.96361 97 102 108
-0.169143 -0.37385 1.87342 46 55 69
-0.35552 -0.28398 1.91459 52 62 71
-0.347904 -0.289633 1.93039 98 105 110
-0.328644 -0.271542 1.9236 86 93 102
-0.306151 -0.269947 1.92017 69 77 86
-0.310361 -0.238488 1.94796 68 75 80
-0.274868 -0.294288 1.91378 51 59 71
-0.267125 -0.322692 1.90358 110 114 120
-0.249703 -0.314302 1.90884 49 57 70
-0.247346 -0.312756 1.92292 58 65 74
-0.248122 -0.325158 1.9049 85 91 99
-0.228011 -0.311509 1.92372 56 63 74
-0.209148 -0.329568 1.90558 45 52 66
-0.210184 -0.352727 1.90902 93 97 104
-0.174706 -0.314172 1.92459 49 58 69
-0.169951 -0.369324 1.90231 75 79 86
-0.151033 -0.35572 1.91229 41 49 64
-0.131194 -0.371736 1.9101 47 55 68
-0.333184 -0.30679 1.93788 95 101 108
-0.32913 -0.311627 1.9252 73 80 89
-0.307366 -0.298681 1.97347 125 131 138
-0.287886 -0.310038 1.94285 71 77 87
-0.247921 -0.312688 1.96402 83 89 97
-0.232746 -0.293708 1.9851 67 75 86
-0.231829 -0.30899 1.96424 55 62 74
-0.229876 -0.354391 1.90446 67 75 84
-0.303942 -0.337609 1.95296 112 116 122
-0.288615 -0.344199 1.94317 84 89 96
-0.269119 -0.327451 1.96228 68 74 82
-0.204122 -0.366683 1.93895 103 107 112
-0.198478 -0.356282 1.94803 49 55 66
-0.190871 -0.36489 1.90391 73 76 82
-0.208974 -0.277315 1.91256 57 64 73
-0.287735 -0.354695 1.9229 52 58 67
-0.169252 -0.331596 1.85107 66 69 76
-0.153742 -0.336976 1.85248 97 102 107
-0.138834 -0.334915 1.84963 162 168 175
-0.133228 -0.350361 1.86414 67 72 79
-0.118351 -0.363892 1.87875 212 215 216
-0.363905 -0.275276 1.94003 170 172 174
-0.359563 -0.283167 1.91425 190 192 192
-0.348146 -0.229668 1.96236 77 86 96
-0.330562 -0.269198 1.94129 77 86 94
-0.329255 -0.292966 1.92898 84 92 98
-0.326128 -0.286699 1.93762 98 106 112
-0.248941 -0.296913 1.97051 122 130 136
-0.231927 -0.328332 1.92794 156 160 163
-0.210337 -0.323461 1.92336 211 217 218
-0.156571 -0.339871 1.9119 211 217 219
-0.360151 -0.252636 1.91361 201 211 212
-0.336164 -0.237234 1.97571 47 58 67
-0.288451 -0.251488 1.91018 40 51 58
-0.149432 -0.282779 1.91859 37 48 59
-0.159546 -0.285711 1.89201 35 46 56
-0.307762 -0.265878 1.96389 112 120 126
-0.29277 -0.271168 1.96372 142 150 155
-0.222678 -0.273661 1.91497 147 153 157
-0.352287 -0.214563 1.95462 191 194 197
-0.190778 -0.390571 1.84807 37 43 51
-0.188796 -0.332022 1.8899 51 59 69
-0.222669 -0.293607 1.91101 59 67 74
-0.230316 -0.370069 1.90242 53 58 66
-0.207059 -0.291424 1.90539 60 67 74
-0.20883 -0.311997 1.90267 58 65 73
-0.208704 -0.317105 1.89029 55 62 71
-0.210317 -0.367089 1.90055 54 59 67
-0.208649 -0.374163 1.89043 48 54 66
-0.187935 -0.290851 1.9078 60 66 74
-0.190903 -0.310914 1.90143 68 74 80
-0.189598 -0.316447 1.88903 55 62 71
-0.190453 -0.371523 1.84861 42 48 56
-0.189417 -0.395352 1.87344 46 52 61
-0.169923 -0.305877 1.89648 54 62 72
-0.169793 -0.331042 1.88463 50 58 69
-0.189762 -0.388663 1.88058 49 54 62
-0.167911 -0.351285 1.87965 49 58 69
-0.170377 -0.39547 1.87233 44 49 58
-0.148163 -0.330424 1.8826 59 65 73
-0.148495 -0.352138 1.87716 49 57 69
-0.148102 -0.39038 1.85096 40 47 56
-0.147867 -0.383675 1.86243 46 55 69
-0.131241 -0.313059 1.89262 53 61 71
-0.131313 -0.389024 1.86037 39 45 54
-0.130884 -0.386573 1.85241 45 55 69
-0.189931 -0.351835 1.84912 46 50 58
-0.187493 -0.309948 1.85817 58 63 70
-0.171182 -0.370646 1.84782 43 48 55
-0.149925 -0.37161 1.85029 43 48 55
-0.137916 -0.336027 1.8664 56 61 66
-0.337836 -0.319996 1.91512 53 63 74
-0.364713 -0.283734 1.93653 141 144 143
-0.329781 -0.330838 1.92267 61 68 78
-0.31177 -0.29785 1.93145 70 79 86
-0.306925 -0.349696 1.92194 53 60 69
-0.307245 -0.287873 1.93936 73 82 89
-0.287658 -0.330841 1.92267 58 65 73
-0.284447 -0.284286 1.9614 75 84 91
-0.275638 -0.296349 1.95184 71 80 87
-0.229923 -0.370545 1.92168 50 55 62
-0.244382 -0.359582 1.914 58 63 70
-0.23497 -0.381404 1.89625 52 57 64
-0.27491 -0.321431 1.98711 83 89 94
-0.193778 -0.357081 1.91919 73 76 83
-0.168363 -0.389446 1.88205 46 51 58
-0.157979 -0.39655 1.87889 40 45 52
-0.156813 -0.40103 1.87636 39 44 52
