ply
format ascii 1.0
comment Created by Open3D
element vertex 1289
property double x
property double y
property double z
property uchar red
property uchar green
property uchar blue
end_header
0.330925 -0.329821 2.10518 48 55 63
-0.405127 -0.529468 2.10512 55 61 69
-0.0315244 -0.656118 2.34505 146 121 100
0.38867 -0.33132 2.16454 56 62 69
-0.149069 -0.58771 2.34426 127 112 94
-0.283871 -0.623244 1.92024 48 46 52
0.331591 -0.316574 2.05217 45 51 58
-0.114209 -0.370954 2.10505 68 71 78
0.471524 -0.646452 1.83318 239 185 131
0.272232 -0.411032 2.18692 42 46 53
-0.248735 -0.588473 2.22685 152 152 150
0.572849 -0.688482 1.78468 180 141 102
0.511166 -0.633697 1.62551 195 177 162
0.472225 -0.592191 2.00735 35 33 33
0.311495 -0.911251 1.92561 13 10 11
0.0920799 -0.452209 1.38629 231 241 254
0.130644 -0.672456 2.10505 196 145 95
-0.305275 -0.551387 2.2782 136 135 132
0.0155915 -0.605954 2.28375 133 95 66
0.246465 -0.549424 2.30563 56 58 60
0.6283 -0.730058 1.66782 167 138 109
-0.188515 -0.66509 2.06503 58 58 64
0.404617 -1.04619 2.18032 53 54 53
-0.0903605 -1.06968 2.46528 32 38 42
0.546205 -0.448375 2.04163 18 18 23
0.371485 -0.872117 2.06676 29 26 26
0.291936 -1.13061 1.82416 7 6 5
0.290345 -0.89007 1.82468 86 77 73
-0.393624 -0.605417 2.00137 91 89 93
0.0293423 -0.654003 1.96627 62 62 66
0.170613 -0.753213 2.18467 158 114 70
0.331008 -1.0344 1.87428 29 22 21
0.13534 -0.470525 2.26612 92 93 95
0.376612 -0.704543 1.96498 188 141 97
0.335949 -0.850047 1.82566 214 164 112
0.409158 -0.630976 2.10446 37 37 41
0.00642736 -0.75274 2.34632 128 88 57
0.0716461 -0.87049 2.39011 28 23 26
0.271266 -0.510946 2.18417 48 50 53
0.315534 -0.489967 2.22473 36 39 44
0.449182 -0.992245 2.10472 26 30 34
0.191801 -0.429013 2.10377 87 72 62
0.373253 -0.830093 2.02855 44 40 37
0.210641 -0.528216 1.98637 152 113 77
-0.0661741 -0.490335 2.32124 116 97 77
0.338932 -0.775399 1.934 62 63 66
-0.33004 -0.373189 2.00262 171 180 201
0.0891867 -0.434533 1.40635 233 243 254
0.589483 -0.749133 1.65164 91 84 79
-0.148958 -0.568692 2.32679 143 124 103
0.233329 -0.850322 1.32231 61 64 70
0.105186 -0.450934 2.35156 155 139 118
0.28361 -0.755502 1.86721 237 183 125
0.249899 -0.691626 2.04759 153 121 95
0.271076 -0.849631 1.80536 222 173 138
-0.00719879 -0.750429 2.32527 154 107 67
0.299757 -0.88363 1.91356 27 25 26
-0.0975886 -0.605698 1.88394 61 53 48
0.0516361 -0.651331 2.22512 146 104 65
0.327587 -0.710883 1.9848 203 149 99
0.373399 -0.651091 2.08732 36 33 32
0.450865 -0.431527 2.04683 38 43 50
0.251171 -0.450377 2.16587 36 39 45
0.449772 -0.73017 1.50551 139 130 125
0.138612 -0.524303 1.3583 225 232 241
0.47772 -0.568599 1.53958 195 165 141
0.563819 -0.814471 1.74476 116 97 87
0.24943 -0.350822 2.16591 55 63 73
0.330205 -0.310545 2.16565 63 70 77
0.26827 -0.551291 2.0633 93 92 93
0.347051 -0.832502 1.92565 79 60 47
0.15399 -0.772747 1.89112 229 175 115
0.0543936 -0.591397 2.32454 79 78 75
0.543761 -0.788971 1.69122 225 164 106
0.0649329 -0.715317 2.12933 171 122 78
-0.161574 -0.363015 2.28768 172 172 166
0.27097 -0.450191 2.04235 53 57 66
-0.223677 -0.56989 2.00047 45 45 49
0.173174 -0.702563 2.08592 172 124 80
0.25176 -0.950609 2.28469 16 18 22
-0.107671 -0.588784 1.98467 59 54 55
0.433603 -0.611671 2.00655 56 57 61
0.391874 -0.592011 2.14443 42 43 49
0.429229 -0.649509 2.06386 27 25 26
-0.0375826 -0.465274 2.3077 46 56 69
-0.113144 -0.411124 2.10621 80 79 82
-0.14602 -0.492017 2.31037 118 103 85
-0.28797 -0.654841 2.14426 53 56 61
0.409873 -0.690926 2.14618 28 25 27
0.217981 -0.528193 1.52608 177 185 203
0.370456 -0.911032 1.92568 29 23 19
0.0539963 -0.567114 2.26397 139 98 66
0.291572 -0.730343 2.20448 27 23 25
0.112681 -0.811014 2.3279 53 47 42
0.12804 -0.732199 1.92539 218 159 104
0.392268 -0.508834 2.24192 30 35 43
0.129736 -0.729336 2.28379 49 45 44
0.19096 -0.430455 2.22328 54 58 63
0.351368 -0.767452 1.49834 191 145 110
-0.00693326 -0.771476 2.38938 105 84 67
0.228286 -1.17028 1.29487 66 69 76
-0.28944 -0.652625 2.24737 142 140 139
0.445377 -0.467681 2.18239 44 48 54
0.113889 -0.607367 2.08481 174 122 75
-0.287651 -0.608251 2.30112 176 174 173
0.247276 -0.75589 1.96565 208 160 115
0.267972 -0.825523 1.9778 40 34 35
0.330514 -0.610203 2.18411 22 21 23
-0.00870613 -0.668149 2.14575 183 136 92
0.00896336 -0.550362 2.36589 108 107 103
0.393843 -0.771961 2.02858 37 33 33
0.370867 -0.511218 2.06613 61 60 61
0.331075 -0.833469 2.23856 13 15 16
0.0699609 -0.691234 2.32304 79 78 72
0.226085 -1.1308 1.2888 68 71 79
0.470869 -0.530048 2.02552 59 53 50
0.431064 -1.04994 2.08551 26 29 33
0.290858 -0.931391 1.36591 73 77 81
0.490774 -0.572005 2.12699 31 32 36
0.309038 -0.750999 1.96471 191 145 101
0.403982 -1.01118 2.20096 43 45 45
0.109209 -0.491667 2.36364 162 150 137
-0.0504168 -0.652152 2.34614 136 106 82
0.33248 -0.97191 2.20618 33 35 37
0.19161 -0.679658 1.80477 215 169 131
0.250919 -0.690252 2.22341 17 16 20
0.231166 -0.691711 2.1645 58 55 54
0.309298 -0.449023 2.06569 43 47 56
0.486938 -0.72936 1.52948 153 133 118
0.0758998 -0.494697 2.45302 44 49 56
0.627582 -0.713288 1.74643 147 126 109
0.309577 -0.488498 1.50351 186 183 189
0.332009 -0.350392 2.06677 50 54 60
0.190765 -0.709058 2.20514 49 45 45
0.0321296 -0.464081 2.20352 120 105 90
-0.133295 -0.594207 2.22676 82 77 78
0.391139 -0.651016 2.22639 33 31 34
0.309343 -0.835975 1.82607 243 186 124
0.351844 -0.412178 2.02986 35 38 46
0.25199 -0.329493 2.26282 76 81 86
-0.109563 -0.671308 2.32487 152 108 70
-0.209884 -0.653751 2.14596 78 73 72
-0.0896293 -0.635942 1.94521 64 64 67
0.289165 -0.510318 1.5052 175 177 189
0.310904 -0.849995 2.22577 14 15 16
0.227692 -0.570603 2.21897 49 50 53
0.333893 -0.649783 2.02599 143 110 81
0.432509 -0.849854 1.86622 37 31 30
0.329697 -0.274445 2.12378 86 91 94
0.112606 -0.631034 2.45104 61 61 64
0.272472 -1.09364 1.76445 38 31 31
-0.070346 -0.411583 2.36544 131 114 95
0.432079 -0.528781 1.52666 171 173 183
-0.337661 -0.533311 2.15672 57 60 68
0.228713 -0.50983 2.12713 41 42 48
-0.396485 -0.373392 2.14238 160 162 160
-0.0648831 -0.708304 2.4656 106 98 92
0.173883 -0.75149 2.2468 29 26 29
-0.150626 -0.531727 1.94484 45 45 49
0.126653 -0.634992 2.20503 146 102 63
0.00931994 -0.614063 2.44685 119 112 104
-0.447374 -0.392144 2.16631 155 157 158
0.331031 -0.689622 1.40565 189 150 116
0.211525 -0.390974 2.16531 56 60 67
0.490626 -0.675412 1.82529 235 182 124
-0.367163 -0.312023 2.04548 101 107 115
-0.24937 -0.529518 1.9852 117 122 127
0.271995 -0.792948 2.1265 159 120 85
-0.129762 -0.65128 2.36603 94 86 83
0.442502 -0.356123 2.09704 44 49 60
0.293122 -0.591052 2.00615 84 79 73
0.220753 -1.18768 1.32628 62 63 67
0.133843 -0.484381 1.46175 224 233 245
0.0105467 -0.510665 2.24511 56 50 48
0.271947 -0.705125 1.46329 203 153 114
0.249647 -0.491106 2.18379 49 52 55
0.113425 -0.453089 1.36956 236 244 254
0.255462 -0.946853 1.92446 130 111 97
0.465374 -1.04597 2.09789 49 50 50
0.0476638 -0.484895 2.14729 97 90 88
0.0155487 -0.824435 2.28846 100 78 59
0.470058 -1.03063 2.04532 36 38 41
0.429451 -0.58916 2.0835 34 32 34
0.367626 -0.342155 2.25437 36 44 56
0.00583379 -0.707326 2.3659 152 123 98
-0.205856 -0.681183 2.10938 60 62 68
0.210556 -0.471181 2.16722 53 58 64
0.132541 -0.649022 2.2038 139 102 68
-0.113948 -0.398543 2.29352 200 199 193
-0.190591 -0.351878 2.08661 100 108 122
0.234021 -0.86344 2.17649 19 20 24
0.350932 -1.00872 1.98405 26 22 18
0.332604 -0.931211 1.90803 14 11 12
-0.108391 -0.411092 2.34777 119 104 89
0.272505 -0.911011 1.36461 60 64 70
-0.365836 -0.27143 2.08394 61 70 80
-0.0490975 -0.848229 2.44607 121 99 78
0.25728 -0.5688 1.95877 66 63 66
0.460179 -0.614887 1.95553 94 97 90
0.410801 -0.510538 1.42548 175 177 187
0.271449 -0.406393 2.24634 99 99 97
-0.0478571 -0.667963 2.18611 180 132 88
-0.139267 -0.520475 2.27878 139 125 110
0.151271 -0.749412 2.18616 165 120 75
0.311809 -0.910776 2.20561 16 16 17
0.1702 -0.610351 2.26507 42 45 51
0.352376 -0.990633 1.92629 5 5 5
0.351994 -0.970128 2.14611 17 18 21
0.36814 -0.670556 2.22615 34 31 33
0.310389 -0.490627 1.4847 199 197 203
-0.0299114 -0.847532 2.42546 137 111 86
0.232019 -0.528877 2.30388 46 48 53
-0.407339 -0.532229 1.99108 47 49 59
0.408143 -0.5893 2.10329 36 35 36
0.0503363 -0.853429 2.34517 142 110 80
0.531071 -0.672853 1.68302 241 190 135
0.269011 -0.890891 1.79243 148 129 121
0.294613 -0.531131 1.52607 171 172 185
0.310866 -0.470739 2.18168 30 32 37
0.289482 -0.911373 2.22511 28 28 27
0.424746 -1.03346 2.10147 24 28 33
-0.0488407 -0.669068 1.98987 76 71 69
0.28996 -0.550762 2.24469 24 26 31
-0.169467 -0.649587 2.38601 90 84 80
0.473752 -0.471385 2.08757 35 36 40
-0.447748 -0.330458 2.12329 139 144 146
0.267073 -0.572634 1.95462 52 41 31
0.0500073 -0.671604 2.34152 115 103 88
0.330394 -0.930906 1.8262 81 63 50
-0.086554 -0.548819 2.36317 142 122 98
0.256854 -0.400089 1.99006 86 78 67
-0.225053 -0.515618 2.22531 159 157 154
0.147968 -0.49136 2.52933 132 132 131
-0.0171925 -0.741099 2.45625 123 122 111
0.153899 -0.55017 1.34329 186 185 188
0.306931 -0.589559 2.02227 168 141 117
-0.20531 -0.369123 2.28533 188 187 182
0.310618 -1.05099 1.3842 92 93 95
0.191374 -0.530557 1.50526 172 180 199
-0.0474149 -0.59107 2.26508 75 64 64
-0.106858 -0.866635 2.36618 61 54 47
0.197738 -0.39314 2.16771 83 85 89
0.331326 -0.47076 2.12497 31 37 46
0.392552 -0.950014 1.90694 93 72 52
0.393698 -0.572765 2.10794 42 41 43
0.330611 -0.470662 2.18563 29 31 36
0.25237 -0.730351 1.36524 112 102 95
0.269952 -0.524242 1.88883 170 122 78
-0.0684996 -0.812215 2.42703 101 83 68
0.173921 -0.531399 1.36642 214 218 224
-0.127894 -0.389558 2.34461 116 101 85
0.190499 -0.570187 1.40245 220 223 233
0.431189 -1.03035 1.88723 23 21 23
-0.169156 -0.549686 2.09932 143 147 151
0.369785 -0.610546 2.12605 35 34 34
0.369603 -0.449586 2.24456 87 92 94
-0.0678243 -0.470612 2.38484 122 104 84
-0.0582455 -0.989175 2.44078 34 38 42
0.313289 -0.990249 1.9085 18 17 17
0.450337 -0.510283 2.06511 34 33 35
0.312056 -0.585994 2.28052 26 28 35
0.271483 -0.311129 2.10635 49 57 66
-0.113055 -0.558327 1.90377 50 63 75
0.147521 -0.591206 2.38542 50 51 52
0.37008 -0.590415 2.2057 39 39 42
0.371719 -1.0296 2.166 32 35 38
0.172606 -0.630712 2.08486 164 118 75
0.0894922 -0.530832 2.44148 70 67 67
0.47519 -0.965321 2.1117 24 26 32
0.230393 -0.570543 2.2843 23 27 34
-0.0508011 -0.610191 1.94595 75 66 60
0.434339 -0.703344 1.90576 224 169 112
0.428752 -0.490252 2.14516 33 34 37
0.210979 -0.650944 2.24501 19 18 23
-0.171507 -0.631476 2.22813 141 132 127
0.549633 -0.730357 1.58537 183 153 128
0.571743 -0.768548 1.76571 65 60 58
0.350135 -0.570589 2.06499 56 55 58
-0.267315 -0.62295 2.02253 65 61 63
0.464258 -0.650039 2.03961 36 33 34
-0.088306 -0.608686 2.22524 109 87 69
-0.207974 -0.633664 1.90937 119 91 73
0.230121 -0.57117 2.14542 64 61 64
0.347484 -0.713074 2.14625 33 28 28
0.537259 -0.465399 1.96121 114 92 77
-0.028421 -0.449936 2.22849 121 111 102
-0.129344 -0.551635 1.94409 69 57 53
0.421086 -1.13283 1.92945 22 23 27
0.409114 -0.570722 2.10477 37 36 36
-0.3306 -0.595535 2.20856 167 171 177
0.0301564 -0.715344 2.22556 187 135 84
0.207737 -0.329441 2.12331 53 61 74
0.248603 -0.874343 1.98898 221 167 114
0.410623 -0.507005 1.96375 52 55 63
0.471314 -0.570796 2.04438 45 41 40
-0.0764478 -0.571299 1.89201 77 82 93
-0.0904544 -0.53033 2.24886 129 111 92
0.0890605 -0.483565 2.34881 129 123 116
-0.0472729 -0.489484 2.30755 112 100 85
-0.288502 -0.270437 2.02635 97 105 114
0.293207 -0.400401 2.28488 31 36 41
-0.189305 -0.612513 1.98501 65 59 57
0.393082 -0.517582 1.98992 56 47 45
0.325125 -0.974433 2.25695 19 23 25
0.408929 -0.330548 2.10464 41 47 56
0.168121 -0.536153 2.49227 39 44 52
0.113262 -0.532543 2.34664 101 102 102
0.149529 -0.702624 1.84535 214 172 142
-0.268059 -0.55267 2.16305 76 74 75
0.231575 -0.450721 2.16778 46 49 55
0.359294 -0.647853 2.27799 24 23 27
-0.2871 -0.628936 2.28369 176 176 176
0.391389 -0.530643 1.98498 65 58 54
0.26892 -0.588495 2.2601 29 30 34
0.0932275 -0.701789 1.86086 176 144 132
-0.186141 -0.546529 1.98475 70 60 57
-0.189212 -0.670429 2.30499 59 57 59
0.331267 -0.672212 1.84638 210 165 124
0.548467 -0.429993 2.04353 26 27 32
0.431278 -1.0105 2.04501 25 26 30
0.326656 -0.690317 1.37017 200 162 127
0.310249 -0.701289 1.88568 210 160 117
0.331853 -0.99123 2.22514 32 33 35
0.329901 -0.310622 2.22356 75 80 85
0.272737 -0.571831 2.12955 47 45 47
0.464915 -0.748543 1.93608 26 22 22
0.250636 -0.690071 2.0258 120 103 92
0.349591 -0.745427 1.49482 193 143 110
0.0709907 -0.570384 2.37057 118 113 112
0.387595 -0.772373 2.14472 25 24 25
-0.227934 -0.352804 2.08755 62 70 81
0.169728 -0.550301 2.24544 40 44 51
-0.107848 -0.353532 2.06539 42 50 61
-0.406132 -0.430357 2.06611 146 155 172
-0.426347 -0.447794 2.07536 124 125 127
0.146224 -0.736989 2.09176 196 149 109
0.288643 -1.11309 1.76555 28 20 18
-0.190954 -0.31541 2.10133 75 83 92
0.270584 -0.709956 2.126 41 35 34
0.111417 -0.652444 2.16584 171 122 77
0.388522 -0.41277 2.2063 42 47 53
0.21151 -0.611152 2.186 51 50 51
-0.0286821 -0.6688 2.02634 89 76 65
0.049286 -0.615268 1.98588 125 96 72
0.376397 -0.762823 1.88419 228 174 121
0.24997 -0.385049 2.02184 58 58 58
-0.427782 -0.311332 2.14937 173 177 177
0.430682 -0.490248 2.04477 59 57 54
0.561874 -0.748519 1.79859 70 64 62
0.245414 -0.591989 2.19847 36 32 33
0.11102 -0.458322 2.48733 71 76 81
-0.0897001 -0.403414 2.14567 124 112 101
0.253268 -0.276378 2.18807 80 87 90
0.311551 -0.751106 2.2245 34 35 37
0.190992 -0.591498 1.38402 233 239 250
0.317263 -0.808151 2.08926 188 136 87
0.530833 -0.69165 1.72548 236 181 123
0.387783 -0.522541 1.3936 156 157 162
-0.0466709 -0.510779 2.28436 127 110 91
0.284521 -1.17023 1.80558 12 11 13
-0.190551 -0.591076 2.18859 114 100 96
0.329773 -0.610563 2.08349 57 55 57
0.448446 -0.791181 1.9243 132 106 85
0.415458 -1.0096 2.08952 31 33 37
-0.0152909 -0.765211 2.43723 87 85 82
-0.183121 -0.554991 2.32 116 106 96
0.370411 -0.31199 2.04725 51 57 66
0.425181 -1.0471 1.94632 13 13 16
0.428526 -0.831384 2.02321 24 22 25
0.311405 -0.990395 1.8833 37 30 29
-0.101091 -0.603265 1.892 51 46 45
0.227821 -0.574507 1.51751 175 178 191
0.326509 -0.496783 2.31903 53 57 63
-0.343995 -0.291854 2.08734 53 62 71
-0.0283935 -0.575132 2.26753 112 107 106
0.309168 -0.509745 1.56524 185 180 184
0.390775 -0.472176 1.44679 194 192 198
0.13042 -0.655022 2.08637 187 136 89
0.240607 -0.845329 1.35825 59 61 67
0.328539 -0.530501 2.14346 36 39 45
-0.180957 -0.441473 2.09917 70 70 79
0.374607 -0.431017 2.0482 43 46 50
0.409924 -0.471134 2.08517 34 38 44
-0.0487086 -0.684888 2.08734 169 125 88
0.32492 -1.12337 1.84468 33 29 29
0.37172 -0.650872 2.04566 49 50 54
0.370437 -0.911972 2.06512 25 24 28
0.191314 -0.432679 2.30717 148 148 143
0.171468 -0.691921 1.848 199 165 143
0.0097774 -0.711664 2.22687 182 132 84
0.0434808 -0.456217 2.22002 80 73 67
0.169524 -0.43082 2.24294 84 86 87
0.331036 -0.370587 2.20583 61 65 69
0.310948 -0.969744 1.92588 11 8 9
0.224337 -0.750352 1.29215 74 77 81
-0.227439 -0.505114 2.11921 97 93 90
0.33051 -0.671968 1.96492 206 157 110
-0.123965 -0.718285 2.44259 119 102 87
0.206714 -0.514885 2.01953 40 50 57
-0.327932 -0.429578 2.14423 145 145 143
0.027132 -0.513743 2.27063 59 51 48
0.606963 -0.729283 1.74305 98 83 72
0.341667 -0.860378 1.80612 240 181 121
0.309637 -0.571522 2.1061 57 55 55
-0.448139 -0.358342 2.07069 188 188 183
0.254277 -0.747538 2.12489 169 120 77
0.449478 -0.587765 2.10665 84 86 93
0.481406 -0.833601 2.01083 52 50 51
0.434464 -0.971886 1.90329 20 19 19
0.391991 -0.750231 2.13973 36 33 34
0.429216 -0.730035 1.46976 129 121 116
0.291778 -0.691667 1.90577 203 153 109
0.35189 -0.651838 2.12497 34 31 31
0.169291 -0.713313 1.94544 191 143 99
0.308271 -0.511949 2.16591 40 41 45
0.154839 -0.472441 2.20683 86 88 91
0.371439 -1.028 1.92454 21 18 20
0.250444 -0.689899 2.16534 43 43 44
-0.287677 -0.571435 2.22831 144 141 138
-0.128636 -0.686819 2.3259 138 107 84
0.312682 -0.531453 2.22437 33 35 40
0.26927 -0.490634 2.26384 70 73 76
0.250197 -1.08996 1.32676 61 65 71
0.291935 -0.890299 1.92653 21 17 18
0.391938 -0.591604 2.26503 33 38 45
-0.0112458 -1.05169 2.3854 28 31 34
0.407812 -0.727716 1.45052 133 127 122
0.141764 -0.80783 2.33819 55 55 51
-0.250902 -0.372883 2.04601 92 100 113
0.351161 -1.12941 2.18549 45 45 47
-0.407202 -0.310322 2.10457 103 112 121
0.131526 -0.511589 2.54703 73 78 81
0.29028 -0.371134 2.10646 41 46 55
0.408813 -1.0111 2.184 30 33 36
0.391399 -0.631187 1.44782 169 160 163
0.271947 -0.674541 2.08481 161 123 86
0.135964 -0.673677 1.30451 204 184 171
0.266694 -1.07439 1.7455 39 33 33
0.0509184 -0.670834 2.04475 187 138 92
-0.110029 -0.705011 2.22802 153 111 74
0.394305 -0.930083 1.92486 115 87 62
0.297313 -1.08746 1.88502 36 30 26
0.325956 -0.399127 2.27888 57 60 61
-0.0494327 -0.608419 2.30631 115 105 99
0.391455 -0.43093 2.0663 35 39 45
0.108924 -0.69055 2.36201 53 50 51
0.45074 -0.470313 2.14528 38 40 44
0.0698545 -0.634686 2.24379 125 98 73
0.224396 -0.399202 2.28224 47 58 67
0.332466 -0.93099 1.94354 8 7 7
0.251861 -0.490777 2.16529 44 45 49
-0.348418 -0.291873 2.11091 72 81 89
0.311762 -0.550608 2.08568 46 45 48
0.567175 -0.672087 1.58436 132 116 108
0.432005 -1.06963 2.08615 31 33 36
0.407495 -0.349709 2.12438 39 45 54
0.249806 -0.570388 2.08401 80 78 80
0.350245 -0.950804 2.14538 13 14 18
-0.0371856 -0.715517 2.30813 164 115 72
-0.447311 -0.310506 2.12715 139 143 145
0.0307395 -0.732303 2.30532 138 96 61
0.0297522 -0.788045 2.34643 146 106 71
0.41314 -0.591171 2.02674 55 55 57
-0.169228 -0.65318 2.20639 69 63 62
-0.0266243 -1.03122 2.38694 27 31 34
-0.18903 -0.670187 2.18621 57 58 61
0.52974 -0.715264 1.72649 232 176 116
0.252089 -0.672705 1.84939 219 169 128
-0.370322 -0.432095 2.08753 113 121 134
-0.337946 -0.555422 2.04717 131 137 137
0.0262575 -0.670933 2.42072 112 110 106
0.289581 -0.410927 2.16678 39 43 50
0.13065 -0.432849 1.38536 235 245 254
0.279554 -0.496802 1.91763 56 60 71
0.23113 -0.672428 1.9058 180 145 115
0.0277008 -0.789146 2.36677 101 80 62
0.190997 -0.689299 2.08592 191 141 94
-0.231893 -0.371248 2.12553 157 156 154
0.394297 -0.852416 1.92954 14 11 12
-0.252967 -0.298142 2.08788 50 60 70
-0.149578 -0.366132 2.28426 99 105 109
-0.209069 -0.389484 2.08599 53 61 72
0.0756419 -0.524891 2.16005 134 100 70
0.370635 -0.429795 2.08418 46 47 50
0.19242 -0.532714 2.18796 49 52 59
0.133139 -0.549202 1.32363 158 157 158
-0.128751 -0.408483 2.08209 45 55 67
0.382279 -0.621289 1.51563 163 160 165
0.184369 -0.466585 2.32829 104 108 109
0.368421 -0.51063 2.26446 26 32 40
0.00367801 -0.992477 2.35155 26 30 33
0.252912 -0.61106 2.16662 52 51 51
-0.0262383 -0.867716 2.34766 96 85 70
-0.0706255 -0.588344 2.0464 108 87 73
0.331603 -0.411568 2.24529 70 72 73
-0.309339 -0.610075 2.16393 156 157 159
-0.0223995 -0.425674 2.28078 126 113 96
0.127609 -0.689699 2.35719 43 40 42
0.351438 -0.468767 2.06663 40 43 49
0.296793 -1.01301 1.7537 23 17 20
0.48032 -0.883205 2.00802 25 25 32
0.37494 -1.05024 2.00519 29 29 30
0.210194 -0.35164 2.12764 41 49 63
0.272633 -0.906199 1.80203 133 118 109
0.390757 -0.892658 1.86617 33 27 27
-0.38936 -0.392048 2.1853 207 207 204
0.0311717 -0.650026 2.24502 157 114 76
-0.0856108 -0.850564 2.42606 96 86 76
0.410406 -0.730054 2.04406 27 24 24
-0.0699949 -0.370256 2.38549 119 103 85
-0.408257 -0.630833 2.09309 37 42 52
0.215191 -1.1901 1.30148 59 60 65
0.248747 -0.467138 1.55572 54 59 67
0.410978 -0.570364 2.0661 67 62 60
-0.00914848 -0.628538 2.12611 157 113 74
-0.0489395 -0.629705 2.34606 124 105 92
0.430786 -0.851661 1.88517 35 29 30
0.38997 -0.83063 1.88566 22 18 20
0.142572 -0.701421 2.01515 171 136 111
0.291021 -0.472115 1.50484 196 171 153
0.252333 -0.689503 1.9846 82 87 90
-0.373906 -0.310581 2.02438 136 141 150
0.407712 -0.591978 2.1869 33 34 39
0.0714593 -0.608443 2.40635 124 123 123
0.173406 -0.431168 2.12363 79 79 81
0.328319 -0.789578 1.40795 127 128 126
0.291259 -0.707289 1.40475 201 155 118
0.0303382 -0.770129 2.36678 84 76 68
0.1315 -0.552034 2.30747 60 63 67
-0.0300245 -0.717716 2.1445 171 128 89
0.069536 -0.537223 2.10539 155 109 67
0.352049 -0.989958 2.14651 32 33 36
0.272524 -0.868609 2.23123 22 23 24
0.423752 -0.634016 2.2053 35 37 42
0.293183 -0.518136 1.42708 161 157 164
-0.162911 -0.494574 2.06664 33 40 48
0.273874 -0.908452 1.98101 170 129 91
0.108695 -0.55111 2.14542 125 104 84
0.196975 -0.297469 2.18744 188 187 179
0.381617 -0.660527 1.78675 223 169 130
0.150497 -0.632668 2.14505 128 97 69
0.249652 -0.750799 2.20599 12 11 13
-0.322928 -0.427219 1.99134 173 182 201
-0.272039 -0.629756 2.12663 72 71 73
-0.0984652 -0.398965 2.09409 202 209 211
-0.0920023 -0.310713 2.42514 115 108 100
-0.289473 -0.653299 2.08575 59 72 78
0.289919 -0.372314 2.18339 46 50 54
-0.00961323 -0.671745 2.04541 166 121 83
-0.209877 -0.567075 1.9291 41 42 49
0.434997 -0.512962 1.93167 46 48 56
0.327047 -0.433777 2.01142 31 37 52
0.250333 -0.470578 2.32501 90 88 86
0.350825 -1.15021 2.1451 44 43 45
0.131065 -0.51056 2.28793 76 78 81
0.134469 -0.611133 2.28573 57 58 61
0.433478 -0.536694 1.92689 136 117 102
-0.376199 -0.472545 1.97159 86 85 86
0.393272 -0.450816 2.20604 47 52 57
-0.273709 -0.571525 2.01078 58 58 61
-0.18982 -0.608065 1.9064 117 120 124
0.36216 -0.726527 1.41205 96 94 96
-0.207156 -0.391416 2.10641 105 107 110
0.0707488 -0.672019 2.00554 194 143 96
0.41262 -0.672369 2.26815 24 24 32
0.305009 -1.11164 1.36799 98 99 100
0.171923 -0.893053 2.30364 19 21 24
0.31072 -0.990337 2.26653 21 25 27
0.350647 -0.890088 2.0472 28 23 22
0.41113 -0.471117 2.006 47 50 55
-0.0718805 -0.870432 2.42511 73 67 57
-0.108011 -0.630826 2.38174 81 74 70
0.390997 -0.491086 1.44696 192 195 205
-0.230485 -0.651049 2.14542 79 75 74
0.331476 -0.591304 2.10551 55 54 54
0.208209 -0.650962 2.28401 29 32 35
0.135713 -0.672731 1.22569 210 159 119
-0.36974 -0.632457 2.18803 168 170 174
0.0912249 -0.538274 2.14844 120 90 67
0.429581 -0.548147 1.94467 63 67 75
0.411158 -0.391129 2.14527 42 47 55
-0.270512 -0.651323 2.34286 94 86 87
0.311305 -0.674037 1.38583 217 168 123
-0.0123725 -0.734094 2.34535 151 105 67
-0.328609 -0.552654 1.96606 87 89 94
0.223962 -0.900629 1.93557 224 171 125
-0.249304 -0.351552 2.28593 191 191 183
-0.329899 -0.391182 2.00566 180 189 211
0.271345 -0.569835 1.47104 176 174 185
-0.0447017 -0.825968 2.30427 187 134 82
0.349009 -0.448435 2.26229 68 71 72
-0.185616 -0.590122 2.08618 105 106 107
-0.0525378 -1.05074 2.42167 31 35 39
0.0639664 -0.796873 2.28946 147 105 69
-0.00977639 -0.628932 2.10539 147 108 73
0.271159 -0.831136 2.26003 34 36 38
0.131648 -0.49056 2.18904 68 75 87
0.25086 -0.548773 1.46883 177 177 187
0.528406 -0.656431 1.60446 243 193 137
0.453919 -0.628593 1.51886 170 168 174
-0.00689519 -0.908214 2.29079 72 63 55
0.211588 -0.673421 1.96533 116 101 90
0.48939 -0.631909 1.50769 241 188 133
-0.167201 -0.630842 2.00674 81 81 80
0.530193 -0.690546 1.5648 212 171 129
0.371559 -0.750211 1.50178 187 142 109
0.371862 -0.949814 1.88564 67 51 39
-0.109389 -0.653984 2.16553 106 82 63
-0.02907 -0.654039 2.16437 165 119 76
-0.236854 -0.466131 2.1283 141 139 136
-0.248196 -0.62803 2.36423 98 90 84
0.00457273 -0.417614 2.28794 120 104 84
0.125895 -0.620386 1.9967 177 130 86
0.132017 -0.748108 2.16431 185 133 83
0.232427 -0.589984 1.48845 169 169 182
0.0527098 -0.706026 2.30401 147 114 84
0.430416 -0.933682 2.10386 29 32 37
0.0704425 -0.749649 2.36549 45 38 38
-0.0369552 -0.316718 2.36587 124 106 88
0.465508 -0.531623 1.50776 137 129 129
0.411104 -0.93091 1.88506 23 20 21
0.0789114 -0.649629 2.38407 65 63 64
0.168772 -0.710526 1.22878 91 89 89
0.252661 -0.609033 1.488 176 172 181
0.338852 -1.14881 2.16195 55 55 56
0.51092 -0.491478 2.00743 32 32 34
-0.0281883 -0.686123 2.22601 183 134 88
0.0303815 -0.564576 2.24459 110 101 94
-0.210202 -0.590084 2.32369 115 109 105
0.192989 -0.590638 1.50689 157 161 176
0.0991812 -0.575061 2.28807 46 47 56
0.410763 -0.350886 2.06638 36 42 52
0.310397 -0.391714 2.14309 39 45 54
0.332768 -0.908753 1.42778 101 102 103
0.350916 -0.732037 1.92696 229 174 117
0.370303 -0.797505 1.86601 56 57 58
0.191157 -0.612358 2.28676 24 28 37
-0.0057708 -0.466225 2.32274 41 50 63
0.391742 -1.02778 1.92538 13 12 15
-0.218789 -0.519228 1.98341 100 111 119
-0.144768 -0.347045 2.13953 49 57 69
0.35048 -0.256549 2.10951 68 74 79
-0.259275 -0.667974 2.2892 106 100 102
0.353781 -0.555697 1.97158 75 67 61
0.131243 -0.671971 2.16542 186 135 86
0.112268 -0.671381 2.28445 97 90 82
-0.209309 -0.569475 2.32563 104 98 89
0.43497 -0.930764 1.94883 4 5 9
0.330772 -0.69449 1.84561 218 165 118
0.330679 -0.495045 1.54561 177 181 196
0.310853 -0.494635 1.92965 57 61 70
0.35178 -0.649977 1.467 172 145 129
0.231622 -0.688606 1.38563 212 161 118
0.290109 -0.470854 2.14464 54 55 59
-0.282824 -0.369525 2.0689 104 110 120
0.352687 -0.429339 2.22561 36 40 47
0.35351 -0.690603 2.25881 26 23 26
-0.031634 -0.531375 2.40552 135 122 106
0.371604 -0.610975 2.10472 63 56 53
0.234113 -0.310143 2.08749 51 60 73
0.390952 -0.490851 2.04614 56 56 59
0.432456 -0.550046 2.04671 67 62 59
0.50776 -0.570084 2.0042 50 45 43
-0.228755 -0.609641 2.20567 157 156 157
0.370761 -0.570841 2.00688 52 57 65
0.152711 -0.705824 2.18777 109 83 65
-0.0134066 -1.04892 2.40504 30 34 35
0.199688 -0.399384 2.08879 30 39 54
0.349404 -0.452173 1.45235 190 196 209
0.409494 -0.608952 2.14393 38 38 42
0.591584 -0.640115 1.63576 241 188 130
0.387392 -0.590642 2.22928 28 28 34
-0.250801 -0.592994 2.27032 147 148 149
0.289965 -0.673315 1.90539 219 173 131
0.315731 -0.533102 1.54746 167 169 181
0.411101 -0.431539 1.96782 183 154 127
0.346142 -0.417713 2.27963 71 73 75
0.332892 -0.808579 1.94453 105 82 61
0.545978 -0.792329 1.78396 93 82 76
0.269936 -1.13207 1.76386 30 24 24
0.529074 -0.449764 1.98687 91 80 75
0.370721 -0.490816 2.10615 42 45 51
-0.190958 -0.512007 1.93059 42 46 57
0.0316801 -0.572621 2.17295 116 85 60
0.449263 -0.41621 2.14545 54 52 52
0.411931 -0.705244 1.74783 214 169 137
-0.408751 -0.329146 2.04593 160 166 180
-0.288482 -0.349332 2.04258 130 135 141
-0.309544 -0.533187 2.06472 87 93 97
-0.210532 -0.330157 2.02772 52 60 69
0.461007 -0.724971 1.9566 41 37 35
0.148536 -0.633229 2.12558 163 121 83
0.371107 -0.650426 2.02523 43 41 45
0.302794 -1.10277 1.80967 16 11 11
0.251226 -0.694728 1.86653 203 160 127
0.133501 -0.488888 2.10317 42 47 60
0.426172 -0.35237 2.05164 30 36 44
-0.272381 -0.490956 2.05153 50 55 62
0.429741 -0.932306 1.90314 14 14 14
0.372264 -0.470002 2.22487 70 74 78
-0.466365 -0.330628 2.12769 162 166 167
0.412262 -0.454091 1.98773 55 60 66
0.188605 -0.485152 2.04172 60 62 71
0.250587 -0.536181 2.24855 46 48 54
0.192114 -0.512652 1.94616 140 111 87
0.149555 -0.51233 2.4232 62 65 70
0.00306063 -0.379126 2.36737 132 114 90
0.0328265 -0.486746 2.28347 122 110 95
0.232049 -0.702917 1.40713 205 155 114
0.0308687 -0.688249 2.22519 188 141 96
0.538744 -0.783195 1.78655 177 137 101
0.159322 -0.569837 1.51151 169 174 187
0.292218 -0.370297 2.2262 56 60 64
0.411183 -0.570274 1.51915 165 167 177
0.331235 -0.654119 1.96596 181 140 102
0.384473 -0.952786 2.19893 24 27 30
0.352859 -0.949079 2.04986 40 37 37
0.367516 -0.310942 2.2047 62 71 80
0.610848 -0.770155 1.66943 73 69 70
0.0894013 -0.67324 2.28589 122 94 66
0.35357 -0.949488 1.86356 55 43 35
-0.252165 -0.62911 2.10869 82 74 68
0.117422 -0.5347 2.32681 97 96 93
0.583702 -0.69044 1.80001 68 66 66
0.0247509 -0.492375 2.35801 55 57 61
0.391989 -0.432 2.00894 30 36 48
0.430515 -0.431175 2.16546 37 41 47
0.271531 -0.786656 2.25866 42 45 47
0.249858 -0.523494 1.90531 177 130 86
0.476161 -0.983064 2.12902 30 33 36
0.371413 -0.550727 2.08604 72 68 64
0.269584 -0.851548 1.34625 67 71 77
0.37142 -0.748962 1.92614 224 169 113
0.236073 -0.746628 1.86213 131 157 176
-0.249398 -0.509181 2.12463 113 111 109
0.174422 -0.491133 2.2267 52 56 63
-0.141422 -0.583037 1.97291 48 48 54
0.290636 -0.430814 2.18498 33 37 45
0.349813 -0.708194 1.46425 194 146 112
0.113534 -0.851381 2.32875 48 41 37
0.251763 -0.591684 2.14767 52 48 49
-0.245756 -0.630077 2.26327 129 130 132
0.290851 -0.351439 2.16532 45 55 66
0.486276 -0.708008 1.92417 29 25 25
-0.269595 -0.513256 2.04629 69 77 83
-0.188858 -0.687234 2.37195 85 82 82
0.12928 -0.474785 2.41582 152 151 143
0.208225 -0.508448 1.5247 193 189 195
-0.388478 -0.330343 2.04438 172 180 197
0.310488 -0.671692 1.50474 175 152 140
0.271095 -0.673111 2.06566 175 135 97
0.371288 -0.671922 1.82594 219 171 128
0.286681 -0.810493 1.92128 156 128 100
0.108823 -0.751341 2.32222 87 75 63
0.0335327 -0.782222 2.43899 143 115 92
-0.0331445 -0.729906 2.47617 113 107 99
0.428897 -0.975145 2.10376 25 29 33
0.292395 -1.0058 1.39858 64 66 73
0.113877 -0.651949 2.28479 105 102 97
0.0297322 -0.453261 2.30529 123 108 90
0.250725 -0.519166 1.88223 179 131 87
-0.151918 -0.571514 2.01008 85 79 78
0.00830138 -0.716252 2.30561 150 104 65
0.162133 -0.479212 2.51395 187 186 180
0.392196 -1.04929 2.14689 34 36 38
-0.290664 -0.548158 2.02367 68 67 73
0.475919 -0.655306 1.92587 177 181 192
0.409504 -0.851853 2.03886 14 13 16
0.350511 -0.910555 1.92436 8 7 7
0.354348 -1.08885 2.1038 44 41 42
0.392521 -0.850303 1.86616 37 31 33
-0.147842 -0.589725 2.28453 97 83 78
0.386823 -0.952071 1.96559 21 19 19
0.110534 -0.670565 2.34498 75 75 75
0.0309738 -0.610525 2.48456 73 69 68
0.331619 -0.590602 2.20245 21 22 26
0.153964 -0.724545 2.1421 181 131 86
0.412273 -0.751613 2.20558 32 29 31
0.563989 -0.782052 1.75697 69 64 64
0.0721149 -0.791688 2.40699 51 42 40
-0.0911668 -0.532209 2.34784 132 115 94
0.310556 -0.410492 2.04513 31 36 51
0.257914 -0.637915 2.21412 13 16 19
0.170706 -0.691496 2.14474 157 118 81
0.410815 -0.630818 2.02628 44 46 51
0.213605 -0.70658 2.00366 74 88 98
0.0331918 -0.551323 2.20522 156 115 81
0.247276 -0.590375 1.51875 180 180 190
-0.292375 -0.572664 2.08401 56 60 65
0.223339 -0.546689 2.32029 53 45 42
-0.0555344 -0.798157 2.38315 63 39 47
-0.308786 -0.277907 2.10608 61 69 76
0.393793 -0.572607 2.16733 41 41 43
0.271794 -0.491192 2.30582 46 51 56
0.251952 -0.390479 2.06706 38 44 56
0.290297 -0.309673 2.06296 50 57 66
0.232481 -0.65236 1.53639 174 173 183
0.291648 -0.711283 2.18657 9 10 12
-0.0681212 -0.689465 2.00587 67 72 80
-0.0149233 -0.354929 2.36715 130 111 91
-0.0702829 -0.687487 2.04499 69 74 81
0.288373 -0.931397 1.90489 15 11 13
-0.368413 -0.470416 2.02089 86 88 93
0.0909971 -0.490852 2.46489 69 73 76
0.432688 -0.991016 2.02475 19 20 24
0.408185 -0.609587 2.10179 44 43 44
-0.144303 -0.511091 2.30831 113 94 74
0.273137 -0.810969 1.92541 218 169 116
0.0491082 -0.555048 2.20471 153 128 104
-0.0681811 -0.633206 1.96655 59 58 61
0.37307 -0.951233 2.00195 31 28 28
-0.256619 -0.35664 2.27313 165 165 160
-0.295297 -0.428354 2.12108 82 86 90
-0.408958 -0.513285 1.99162 43 46 56
0.180366 -0.651748 1.89482 197 154 121
-0.167273 -0.628787 1.98562 98 89 83
0.290463 -0.489638 1.99943 39 37 39
0.173818 -0.650934 2.20788 40 38 41
0.391605 -0.590903 2.24492 63 64 68
0.170379 -0.77213 2.28443 67 59 51
0.370791 -0.389961 2.04528 43 46 53
0.40556 -0.35169 2.1687 59 65 75
0.253751 -0.76697 1.9473 221 166 111
0.193087 -0.752311 2.16531 150 108 69
-0.288326 -0.667104 2.22298 161 135 117
0.292221 -0.47172 2.12609 53 53 55
0.206615 -0.794663 2.27925 23 24 26
-0.127109 -0.433771 2.28912 121 107 92
0.232566 -0.37181 2.08536 45 51 63
-0.107477 -0.889591 2.4266 98 87 74
-0.307686 -0.589798 2.1417 105 101 105
0.291734 -0.295072 2.25899 95 102 108
0.27683 -0.859468 1.89204 82 83 87
-0.00605862 -0.729071 2.42341 85 82 81
0.271089 -0.611073 2.14658 43 40 41
0.351 -0.510414 2.12616 33 37 44
0.450292 -0.513893 1.52932 168 172 183
0.0292559 -0.531072 2.20537 107 92 84
0.149924 -0.471073 1.40952 206 213 224
0.0320117 -0.553145 2.24532 116 93 75
-0.453658 -0.441616 2.13896 158 158 156
-0.152533 -0.633331 1.9862 78 75 73
0.269706 -0.708775 1.88504 214 162 116
0.231289 -0.470277 1.45074 187 193 210
0.319253 -0.582545 1.95799 55 52 51
0.357113 -0.724462 2.0258 167 127 90
0.0324173 -0.565531 2.26245 124 119 114
0.436642 -0.40894 2.23884 118 121 126
0.0305582 -0.752156 2.24639 166 117 73
0.189122 -0.552356 2.26338 46 51 59
0.228929 -0.429666 2.24448 86 92 99
-0.227099 -0.590842 2.30781 121 117 115
-0.358137 -0.597138 1.99017 62 62 69
0.351058 -0.490884 1.46427 197 200 210
0.254284 -0.575432 1.9458 68 66 69
0.190599 -0.553736 2.28836 40 41 46
0.290572 -0.551582 1.94528 171 131 96
0.403674 -0.533033 2.24474 36 41 48
0.427513 -0.970062 2.01182 18 18 22
0.112936 -0.662153 2.37751 73 72 74
0.232118 -0.510944 2.28718 91 95 98
0.251834 -0.573221 2.12915 56 54 58
0.192025 -0.570454 1.50749 163 168 185
0.207562 -0.639077 2.06385 158 121 85
0.0861592 -0.609501 2.42225 181 178 176
0.450868 -0.67108 1.96701 55 52 52
-0.389482 -0.254088 2.07977 98 105 113
0.192303 -0.531718 2.2053 40 43 48
0.22882 -0.314218 2.26402 111 113 111
0.236816 -0.747299 1.98459 211 156 105
0.445868 -0.659789 1.87916 236 182 122
0.414005 -0.489029 1.98306 54 57 64
0.418569 -1.03029 2.07405 28 30 34
0.116834 -0.704469 2.10202 189 136 86
0.131723 -0.451036 2.10653 55 58 66
0.228787 -0.810506 1.30785 66 70 76
0.527036 -0.44821 2.06298 20 21 26
-0.108436 -0.629535 2.14661 68 62 58
0.216332 -0.772583 1.32114 67 69 74
-0.324987 -0.409718 2.08524 71 76 83
0.425892 -0.57082 2.12407 48 45 47
0.43028 -0.672336 1.96676 135 109 84
0.270744 -0.370543 2.045 43 46 52
-0.024767 -0.406621 2.30291 138 122 101
0.177358 -0.608953 1.5019 129 132 146
0.371769 -0.590622 1.50403 169 166 173
0.369631 -0.811201 1.90353 27 23 26
0.0452645 -0.482855 2.35511 109 103 96
0.0306232 -0.611389 2.26603 148 103 64
-0.00906309 -0.632426 2.2448 149 106 69
0.252456 -0.910886 2.26767 7 9 12
0.265255 -0.688017 1.31252 172 140 113
0.272951 -0.512744 2.06807 38 36 39
0.407503 -0.709799 1.44832 145 129 116
0.470243 -0.812143 2.00436 40 39 40
-0.303404 -0.322312 2.0298 120 125 132
0.157759 -0.612702 1.33945 161 158 158
0.412713 -0.571535 2.08758 40 38 38
0.530797 -0.694781 1.80505 235 178 119
0.110281 -0.454634 2.14524 68 74 79
0.269647 -0.693143 2.24031 44 42 42
-0.153003 -0.53609 2.12595 105 98 100
0.309745 -0.832619 2.18591 14 15 16
0.508206 -0.727878 1.88076 68 60 58
-0.312557 -0.332451 2.1011 130 136 153
0.311441 -0.95367 1.88839 23 19 20
-0.0799159 -1.04982 2.38563 27 32 37
0.373969 -0.706171 1.98599 171 129 92
0.26608 -0.732577 1.90739 220 166 117
0.17198 -0.673263 1.88786 208 163 128
-0.0898514 -0.950282 2.42459 22 27 32
0.352986 -0.868663 2.03207 44 40 38
0.26948 -0.531424 2.28654 32 35 41
0.372257 -0.591996 2.28486 47 51 56
0.146281 -0.510865 2.22365 80 82 83
-0.0716558 -0.612865 2.22692 136 97 68
0.281957 -0.857462 1.98382 26 19 20
0.241111 -0.67381 2.25983 50 53 59
0.389586 -0.99113 2.18528 21 25 29
-0.347889 -0.310067 1.98748 96 103 113
0.304036 -0.835681 1.9698 25 21 22
-0.324328 -0.46764 2.00969 169 175 195
0.294107 -0.316445 2.05201 39 43 50
0.205936 -0.71032 2.26139 36 34 36
-0.350315 -0.648875 2.22555 167 166 167
0.154851 -0.65523 1.22347 217 166 120
0.231366 -0.65762 1.38399 212 161 117
0.370338 -0.368748 2.02832 52 53 58
0.131892 -0.452603 2.4078 67 71 77
0.392138 -0.770007 2.04578 27 24 24
0.426301 -0.472129 1.4471 109 115 128
0.473639 -0.727897 1.88619 198 152 106
0.465835 -0.49059 2.14425 40 38 41
0.407782 -0.633897 2.2815 19 20 30
0.371122 -1.07137 1.9458 20 18 19
0.404329 -0.891769 1.92482 18 16 16
0.272898 -0.85068 2.22879 23 24 25
0.133503 -0.710511 2.22705 105 82 64
-0.409832 -0.469197 2.02436 97 99 104
0.269632 -1.03104 1.34562 65 69 76
0.204394 -0.795037 2.35299 30 26 28
0.270053 -0.469975 2.16326 45 47 50
0.327902 -0.991853 2.04642 38 34 34
0.450195 -0.630944 2.04462 33 31 32
0.152102 -0.569163 2.48372 54 57 62
-0.226744 -0.544254 2.024 129 129 131
0.165699 -0.791567 1.98279 223 166 110
0.150059 -0.691099 2.24551 37 35 38
0.110182 -0.571081 2.40484 50 50 54
-0.128021 -0.593237 2.06138 57 61 62
-0.389628 -0.273751 2.06352 70 78 88
-0.270159 -0.645156 2.28231 137 137 140
0.19311 -0.911889 2.27491 4 5 9
0.3909 -0.609513 2.18014 49 46 43
0.346486 -0.277644 2.2012 140 143 143
0.451048 -0.807317 1.82291 42 38 37
-0.212727 -0.389311 2.26665 169 169 165
-0.310785 -0.514306 2.09369 44 49 57
0.23002 -0.869687 2.28315 19 21 24
0.330502 -0.610794 1.48356 181 177 183
0.27138 -0.290741 2.08612 49 57 65
-0.011887 -0.816731 2.3468 62 55 47
0.0912838 -0.531814 2.42717 66 62 62
0.445321 -1.01393 1.98456 5 6 10
0.369853 -0.670235 2.1486 28 24 25
0.392192 -1.19211 1.92576 22 25 30
-0.129051 -0.71573 2.14399 95 80 69
0.0305064 -0.884847 2.40313 43 40 39
-0.350497 -0.32831 1.98596 168 175 193
0.191719 -0.510004 1.48639 174 183 202
0.413006 -1.05075 1.88588 79 62 48
0.170826 -0.571168 2.24645 41 44 49
0.405331 -0.509686 2.22342 48 51 55
0.0311129 -0.686193 2.00507 187 139 95
0.271517 -0.34804 2.26512 58 66 74
0.472463 -0.650049 1.61056 163 165 174
0.313723 -0.330758 2.2081 65 69 74
-0.0454065 -0.7218 2.16212 178 128 83
0.343383 -0.825777 1.43071 144 140 135
0.230982 -0.590013 2.20384 49 51 54
0.389917 -1.19113 1.94304 22 25 32
0.0892543 -0.474897 2.28728 147 133 117
-0.0273344 -0.852738 2.30642 188 143 100
0.251984 -0.548976 2.06429 84 76 73
-0.109805 -0.675559 2.24658 132 101 75
0.351444 -1.03135 2.08688 65 57 54
0.3441 -0.825771 2.01109 209 154 101
0.0492415 -0.555082 2.18439 154 110 70
0.350938 -1.17071 1.90942 31 29 29
0.310894 -0.451425 2.16546 61 67 75
0.21049 -0.747075 1.92881 203 160 123
0.206857 -0.45933 2.02225 218 224 229
0.113483 -0.70679 1.93144 217 158 103
0.191039 -0.909824 1.90569 130 116 110
0.311301 -1.05122 1.90201 36 30 29
0.351534 -0.392734 2.03112 35 36 42
0.351929 -0.832946 2.23867 31 28 30
-0.292249 -0.391312 2.10239 155 161 179
0.256659 -0.274469 2.1122 51 59 68
0.288022 -0.973053 2.28083 19 22 25
0.190513 -0.65253 1.24574 206 160 120
0.331594 -0.470899 2.26612 76 79 81
-0.373391 -0.350627 2.12504 77 85 93
-0.250053 -0.600006 1.8827 184 187 192
-0.00986578 -0.66981 2.24635 184 134 89
0.167958 -0.485185 2.45745 51 57 64
0.0709436 -0.628683 2.02656 102 76 57
0.605971 -0.649482 1.61438 220 173 133
0.15096 -0.652871 2.08446 181 132 86
0.410614 -0.490459 2.04536 74 70 67
0.131269 -0.470319 1.42484 233 243 254
0.370688 -0.410268 2.1041 33 37 44
0.231857 -0.456346 2.30488 68 72 76
0.251857 -0.610719 2.06785 78 74 66
0.0681008 -0.686893 2.36322 82 78 73
-0.233623 -0.519364 1.95061 105 108 116
0.409763 -0.408808 2.08509 41 41 45
0.110753 -0.672242 2.10506 192 141 93
-0.144767 -0.546429 2.15066 90 81 80
0.405426 -0.331908 2.14225 51 56 65
0.369355 -0.569793 1.48367 171 169 178
-0.297097 -0.619648 2.27285 172 174 176
0.310025 -0.432449 2.0123 36 35 38
0.33118 -0.528908 2.24509 29 31 36
0.334655 -0.251204 2.12292 69 75 80
-0.229976 -0.683253 2.35968 125 116 117
0.390739 -0.551007 1.46241 179 182 194
0.430845 -0.432437 2.10596 55 58 61
0.371278 -0.53303 1.96261 81 73 69
0.275902 -0.789499 1.3775 90 88 89
0.0971768 -0.713939 1.88562 218 180 151
0.257486 -1.07245 1.3605 60 62 68
-0.211202 -0.329764 2.14492 188 188 188
0.17678 -0.610443 1.36281 217 218 225
0.234623 -0.868043 1.98226 220 166 114
-0.229858 -0.609255 1.86742 163 148 139
0.290264 -0.709353 2.1042 70 61 55
0.490463 -0.37479 2.04793 55 58 59
-0.148566 -0.497814 2.13742 85 83 82
0.293449 -0.98901 2.26714 24 26 28
0.307222 -1.03416 1.74952 46 39 35
0.236227 -1.10886 1.34217 55 55 61
0.316494 -1.05217 2.04689 29 26 25
0.431607 -0.809457 1.86395 173 133 95
-0.111109 -0.828944 2.44148 106 87 71
0.429248 -0.590976 2.00524 65 62 62
0.3501 -1.0294 2.18608 40 40 42
0.310556 -0.687074 1.98507 184 143 110
-0.358022 -0.462437 1.98281 154 158 177
0.386899 -0.470695 2.1238 44 46 51
0.330665 -0.631612 2.24394 29 29 32
0.109463 -0.74517 2.16645 182 131 82
0.290282 -0.530701 2.1465 57 57 58
0.251964 -1.09092 1.34448 60 62 68
-0.353629 -0.53788 1.94594 79 81 85
0.330998 -0.672576 1.50401 176 150 136
0.375073 -0.765589 1.46194 127 122 120
0.370202 -0.549323 1.98559 104 94 83
0.17233 -0.415211 2.20495 130 128 124
0.413513 -0.585336 1.51668 173 173 181
-0.00951328 -0.56829 2.3449 88 85 80
-0.313451 -0.537844 2.2466 99 98 96
0.0478649 -0.891231 2.26946 122 88 59
0.3307 -0.892532 1.82731 51 48 49
0.391341 -0.452563 2.00792 51 56 64
0.450229 -0.592356 2.00721 44 43 45
0.280086 -0.503265 2.04226 88 93 100
-0.190559 -0.666028 2.40237 142 137 133
0.350488 -0.491817 1.50494 184 180 184
0.329736 -0.490505 2.1056 35 38 44
0.503486 -0.488654 1.95098 25 30 39
0.430671 -0.551264 2.02486 47 50 53
0.392786 -0.331066 2.10597 44 51 59
0.147929 -0.721106 1.77958 213 211 218
-0.263966 -0.586378 2.28296 169 167 165
0.250577 -0.690466 2.08521 181 134 89
0.39254 -0.410363 2.08515 38 40 44
-0.20517 -0.329447 2.2383 84 85 84
0.24897 -0.390928 2.10419 43 51 63
0.270495 -0.430967 2.16536 34 39 45
0.19092 -0.690256 1.78559 216 170 134
-0.089001 -0.653601 2.04663 66 63 65
-0.0883221 -0.510508 2.34525 120 103 83
-0.288516 -0.35161 2.0804 105 111 124
0.390614 -0.674935 1.84553 231 178 125
0.314745 -0.990189 2.04636 93 74 58
0.210484 -0.389631 2.24383 44 54 66
0.337146 -1.10887 2.10501 41 40 41
0.309481 -0.709218 2.06484 131 101 75
-0.267717 -0.592029 2.02609 63 60 59
0.430276 -0.676402 1.84603 235 183 128
0.444365 -0.833815 1.82829 227 172 120
0.409048 -1.21129 1.90715 35 37 42
-0.428512 -0.237088 2.06892 94 102 107
0.311124 -0.716823 1.52048 160 139 131
-0.108283 -0.53294 1.92824 52 58 64
-0.24855 -0.530788 1.96551 120 122 130
0.290618 -0.890228 1.79192 68 68 67
0.410266 -0.911066 2.08438 21 22 27
0.445275 -0.551931 1.46852 222 182 144
0.252453 -0.990646 1.34485 59 63 69
0.313525 -0.911532 1.90728 24 18 20
0.33084 -0.33125 2.08596 56 60 67
0.331827 -0.96805 1.88757 29 25 24
0.0105437 -0.613701 2.02401 147 104 66
0.411269 -0.68829 1.48372 170 143 125
0.0111469 -0.559317 2.44313 174 151 123
-0.24879 -0.63109 2.24864 122 122 125
0.271421 -0.273224 2.10882 51 60 68
0.378314 -0.782642 1.82032 224 173 128
0.0918005 -0.830981 2.28532 132 95 64
0.395383 -0.871144 2.00612 49 44 42
0.363385 -0.815583 1.91963 22 18 20
-0.0473329 -0.450996 2.3272 128 108 85
0.332285 -0.651965 2.00516 144 108 75
-0.407863 -0.289333 2.02535 111 116 120
0.338744 -1.10721 2.15875 41 41 43
-0.286565 -0.49113 1.96596 166 169 189
0.391774 -0.9114 1.92662 152 115 79
0.288851 -0.930752 1.34981 82 86 90
0.193084 -0.848046 1.9644 221 166 116
0.330153 -0.650934 2.12677 108 92 76
0.333607 -0.512797 2.0724 33 36 44
0.484064 -0.418741 2.08295 61 67 75
0.190376 -0.388993 2.30423 103 107 107
-0.350042 -0.392285 2.04815 139 147 164
0.090055 -0.591962 2.18578 163 114 70
-0.0717873 -1.132 2.44527 28 33 36
0.374741 -0.929098 2.2021 23 25 28
0.271652 -1.21035 1.34605 64 68 74
0.443283 -0.527955 2.11938 53 52 51
-0.424759 -0.411606 2.00463 119 119 120
0.251563 -0.45291 1.5046 120 125 136
0.0874345 -0.552853 2.12685 155 111 70
-0.186272 -0.574728 2.32616 118 106 93
0.315477 -1.02185 1.93522 4 4 4
0.170566 -0.801758 2.25313 43 37 34
0.328472 -1.04584 1.91745 35 31 29
0.350266 -0.65058 2.16528 44 40 37
0.150798 -0.771029 2.28773 58 51 43
-0.0487028 -0.667503 2.00637 69 65 65
0.426989 -0.510998 1.44811 176 171 173
0.133125 -0.490722 1.40425 232 241 253
0.43631 -0.948126 1.98299 59 57 59
-0.114038 -0.70909 2.37027 179 128 79
0.330925 -0.372218 2.14537 47 54 64
0.371177 -0.891727 1.84614 35 28 29
0.311797 -0.530558 2.28519 37 38 43
0.470384 -0.451241 1.9858 31 37 46
-0.0943842 -0.570569 1.94262 91 83 78
0.408652 -0.993091 2.18507 22 26 30
0.137884 -0.70891 1.19052 52 57 64
0.413304 -0.417945 2.01447 59 60 68
-0.0353655 -0.599075 1.92832 72 66 66
-0.228948 -0.668648 2.20458 68 67 70
0.411508 -0.590958 2.08567 39 37 37
0.250836 -0.690263 2.06541 180 137 99
0.412185 -0.630863 2.04663 42 42 44
-0.122611 -0.857831 2.44849 98 90 81
0.310638 -0.911274 1.38441 99 99 101
0.339941 -0.753008 1.44349 184 143 117
0.221825 -1.20715 1.28968 66 70 77
0.136817 -0.584858 2.18599 160 122 89
-0.271021 -0.488447 1.91039 37 42 51
0.0305837 -0.669396 2.18458 189 138 91
0.273009 -0.332521 2.10695 46 52 61
0.350624 -0.470927 2.22681 58 63 67
0.491926 -0.470273 2.12001 21 29 41
0.355136 -0.635949 1.5254 161 156 162
0.185062 -0.669667 1.22989 216 165 123
-0.0527936 -0.832702 2.40385 112 89 66
-0.231852 -0.331062 2.22565 183 182 181
0.368822 -0.651415 2.18803 38 34 34
0.367127 -0.488516 2.14328 25 31 42
0.529722 -0.489877 1.99178 45 40 41
0.189074 -0.772396 2.28325 32 31 31
0.251242 -0.710678 2.12765 91 72 59
0.25073 -0.674702 1.48654 176 138 113
0.391326 -0.647814 2.24014 30 29 35
-0.290097 -0.550328 2.04647 94 94 96
0.451169 -0.969537 1.98546 35 36 41
-0.0160468 -1.03394 2.39745 30 36 38
0.210519 -0.489914 2.12484 86 86 88
0.290601 -0.511661 2.28495 38 42 48
0.412059 -1.0307 2.16533 38 40 42
0.311751 -0.449761 2.00876 36 35 38
0.290744 -0.511065 2.00394 53 49 48
0.350907 -0.891319 1.94553 8 7 7
0.451212 -0.442446 1.93219 42 47 56
-0.0685882 -0.613804 2.14642 92 73 59
0.0931414 -0.589763 2.24217 166 128 92
0.290755 -0.651456 1.88633 211 164 125
-0.190323 -0.533062 1.92821 44 46 52
-0.149574 -0.588729 2.08442 88 82 78
0.109876 -0.693888 1.8863 213 166 131
0.338743 -1.00284 2.17169 8 11 14
-0.209567 -0.530752 2.10642 121 122 124
0.028175 -0.47467 2.28798 119 110 101
0.00664045 -0.491282 2.24666 82 71 63
0.376087 -0.782006 1.89684 81 82 86
-0.109188 -0.612832 2.16634 45 43 46
0.491914 -0.451658 2.06592 41 42 45
0.353041 -0.313463 2.05007 50 55 64
0.61076 -0.692001 1.6462 215 174 129
0.526068 -0.669181 1.53364 86 87 88
0.168795 -0.569716 2.30123 35 37 42
0.410387 -0.409889 2.04717 39 41 47
0.352951 -0.770293 2.0234 171 135 98
-0.410025 -0.26901 2.06431 76 84 92
0.411737 -0.530831 2.00717 49 49 53
-0.168461 -0.686889 2.26406 82 67 55
0.510633 -0.709848 1.54803 190 156 125
0.330749 -0.61077 2.26797 35 34 39
0.350055 -0.630238 2.10341 51 45 43
-0.288372 -0.529478 1.91112 37 41 51
0.00935303 -0.455525 2.24766 123 108 91
0.111776 -0.508479 2.50584 82 84 87
-0.188562 -0.651837 2.28595 81 78 77
-0.0524563 -0.351001 2.40722 123 107 90
0.148778 -0.547279 2.16312 47 47 52
0.427978 -0.590704 1.44971 195 176 165
0.369822 -0.911458 2.08619 27 26 29
0.201421 -0.606856 1.36813 163 123 97
0.115417 -0.436313 2.11591 34 40 53
0.303924 -0.708511 1.35149 163 145 127
0.272552 -0.550886 2.22618 43 45 48
0.149248 -0.632072 2.16458 114 87 63
0.282916 -0.739156 1.9287 219 165 113
0.393668 -0.309993 2.08482 48 54 62
0.250604 -0.370582 2.06679 40 46 57
0.351384 -0.330118 2.14587 54 60 69
-0.249635 -0.592732 2.30702 100 97 94
-0.085974 -0.701659 2.24249 163 116 75
0.270149 -0.705013 1.48537 199 149 111
-0.0748701 -0.608157 2.39277 79 72 66
0.331754 -0.491153 2.12514 28 34 41
0.470895 -0.591699 1.9865 37 39 43
-0.184686 -0.371014 2.24424 154 156 154
0.489678 -0.570914 2.02551 38 36 37
0.30629 -0.329571 2.25883 70 81 92
0.232689 -0.911002 1.32398 60 63 69
-0.349265 -0.270568 2.08634 60 68 78
0.233922 -1.07152 1.34265 55 55 60
0.571403 -0.690606 1.62659 244 193 138
0.371504 -0.50612 1.54226 181 178 184
-0.0303983 -0.317852 2.42392 130 115 96
0.181771 -0.728144 1.23503 66 71 76
0.372599 -0.51034 1.4305 171 173 184
0.312561 -0.631405 2.16621 26 24 26
0.411697 -0.77134 2.02662 33 29 29
0.23088 -0.670875 2.02556 104 95 87
0.251653 -0.751606 1.32372 76 78 82
0.0493918 -0.712104 2.36337 82 79 77
0.187734 -0.47651 1.53949 82 106 128
0.25049 -0.33505 2.28422 60 68 77
0.13022 -0.488304 2.20651 147 149 154
0.53062 -0.710783 1.56681 184 153 124
0.150493 -0.678364 1.82791 215 175 146
-0.0888604 -0.592019 2.32782 71 64 62
0.319226 -0.801628 2.00578 205 151 98
0.43051 -0.532251 1.9657 89 78 68
-0.31029 -0.652066 2.22719 131 129 128
-0.141616 -0.581622 2.12915 131 118 108
-0.129541 -0.611403 2.02701 103 88 77
0.403594 -0.653607 2.1309 33 30 32
-0.031398 -0.838532 2.41136 71 65 54
0.12932 -0.551421 2.34347 49 52 58
0.489427 -0.490486 2.06548 31 31 33
0.448882 -0.432853 1.9681 123 109 98
-0.170515 -0.59128 2.22559 122 118 118
0.374226 -0.832317 2.04812 42 36 32
-0.0518672 -0.691857 2.44197 73 70 69
-0.389571 -0.313368 2.02822 173 179 192
0.370627 -0.931756 1.8849 105 80 58
0.332437 -0.410489 2.04611 34 39 50
-0.249448 -0.637015 2.14741 61 62 63
0.550848 -0.689799 1.74554 235 178 119
0.253542 -0.31314 2.07334 51 58 72
-0.185031 -0.571063 2.04686 132 100 77
-0.230069 -0.390386 2.10787 130 131 132
-0.388968 -0.371444 2.10389 103 110 122
-0.0871964 -0.70336 2.22427 164 119 77
-0.0462432 -0.405413 2.28194 131 111 88
0.0114183 -0.591305 2.20712 119 88 63
0.33533 -0.807562 2.04429 198 144 93
0.191721 -0.688356 1.94507 186 142 106
-0.0487873 -0.951703 2.36921 18 22 26
0.210423 -0.409161 2.22553 42 49 58
0.351327 -0.431176 2.08627 44 44 48
