ply
format ascii 1.0
comment Created by Open3D
element vertex 1336
property double x
property double y
property double z
property uchar red
property uchar green
property uchar blue
end_header
3.82973 -0.691902 1.96688 134 111 95
3.17094 -0.703824 1.58587 132 89 64
3.80435 -0.609392 2.07101 126 107 98
3.01164 -0.250083 2.62734 168 169 166
3.20843 -0.949478 2.74484 72 67 67
3.19003 -0.710076 1.94573 102 79 68
3.41219 -0.689366 2.34953 35 25 25
3.17426 -0.57626 1.88524 209 184 191
4.01014 -0.570507 2.82832 56 51 49
2.96948 -1.09049 2.60703 60 58 59
2.87493 -1.01123 2.52319 57 56 59
3.02774 -0.530505 2.64949 142 138 137
3.17623 -0.545505 2.21882 20 19 23
3.34843 -0.272088 2.60695 24 25 34
2.76861 -0.351164 1.74416 83 88 93
3.7905 -0.706773 2.54571 211 153 97
3.70395 -0.735182 3.1424 70 58 53
3.33074 -0.55067 1.56671 176 168 176
3.85283 -0.744374 3.01777 65 59 59
3.6603 -0.282033 2.0733 124 116 115
3.93045 -0.725204 2.7255 209 144 70
3.68637 -0.6396 2.28266 116 82 59
3.85939 -0.551103 2.91486 34 25 12
3.3083 -0.691343 2.4467 82 70 78
2.85136 -1.03113 2.48482 62 61 64
3.25335 -0.609889 2.21863 90 86 31
3.21134 -0.670676 2.14555 104 94 82
3.52995 -0.650381 2.56597 37 30 31
3.4334 -0.631835 1.88512 137 115 115
2.87119 -0.698401 2.06598 229 172 110
3.94827 -0.371405 2.99735 73 75 81
3.61094 -0.709628 2.34533 65 55 52
4.13244 -0.65104 2.46163 184 141 110
4.04999 -0.451232 2.8266 46 45 43
2.94791 -0.812049 2.52964 59 55 55
3.43086 -0.591183 1.76519 116 118 116
2.62796 -0.82589 2.24878 108 100 96
3.52367 -0.680249 3.00189 232 163 73
3.53256 -0.490615 2.36702 35 32 33
3.2967 -0.651915 1.4831 171 151 155
3.79247 -0.876104 3.04782 49 40 36
2.90691 -0.930702 2.50807 81 76 77
3.51139 -0.250192 2.20631 105 105 104
3.13149 -0.791267 2.6871 95 80 71
3.3331 -0.310348 2.54893 29 30 36
4.11928 -0.46565 2.7546 50 49 53
2.62985 -0.80964 2.22789 137 112 98
3.55332 -0.71181 2.26578 47 38 35
3.99141 -0.690718 2.78466 69 52 41
2.71479 -0.910049 1.80518 30 24 22
2.79016 -0.350783 1.68606 67 75 83
4.0302 -0.792491 2.78332 32 19 15
2.84671 -0.910898 2.44879 65 63 64
3.97094 -0.369348 2.92656 57 62 68
4.05168 -0.726996 2.36587 204 152 112
4.02956 -0.72531 2.50614 205 147 97
2.96531 -1.30973 2.54962 54 54 58
3.58307 -0.333077 2.38195 42 42 49
3.17089 -0.687013 2.10553 71 72 76
3.22624 -0.550072 2.52019 83 68 62
3.53588 -0.529683 2.34652 32 28 30
3.27054 -0.708753 2.80556 235 171 104
3.58916 -0.490238 1.82725 134 142 156
3.55069 -0.230798 2.02388 178 181 181
3.35303 -0.612198 2.04727 60 63 58
3.25449 -0.649416 1.546 56 56 67
3.33774 -0.712081 2.9588 66 55 50
4.01082 -0.551058 2.92496 44 44 46
3.73165 -0.691502 2.16707 124 89 64
3.79097 -0.708633 2.74557 215 151 90
2.71125 -0.331983 1.766 78 84 90
3.5344 -0.352409 1.90674 88 107 100
3.96999 -0.610595 2.94699 50 46 47
4.14863 -0.650967 2.72297 34 29 25
4.00533 -0.704548 2.19957 167 130 100
3.89089 -0.698063 2.66556 214 156 98
3.48787 -0.62843 2.46338 31 28 32
3.05238 -0.514779 2.50908 228 229 235
3.73069 -0.232385 2.06707 128 126 124
4.11077 -0.676509 2.20556 156 144 147
3.13431 -0.951953 2.72556 71 65 64
4.12992 -0.72485 2.22832 189 181 189
3.19121 -0.640814 2.07031 60 69 76
4.13179 -0.390545 2.80196 67 73 79
3.76359 -0.490944 2.14768 26 29 37
2.8555 -0.767969 2.51623 85 85 85
3.52936 -0.31027 2.36494 47 49 53
3.0703 -0.216893 2.66533 146 147 145
2.95868 -0.653125 2.54814 226 188 154
3.61014 -0.490839 2.32528 37 32 36
3.31341 -1.31676 2.93898 74 79 86
3.70424 -0.449712 1.90318 76 74 73
2.47073 -0.78605 2.12391 148 146 143
3.35214 -0.679057 2.446 200 148 103
3.11097 -0.350806 2.58586 111 104 98
4.07685 -0.771746 2.71226 48 34 21
3.42952 -0.271276 2.48537 39 41 47
3.77087 -0.691547 2.22741 165 122 89
3.71127 -0.430954 2.1656 63 65 69
3.63865 -0.402807 2.17971 59 58 60
3.07093 -1.111 2.64768 66 62 63
2.70787 -0.41062 1.8448 45 46 55
3.77137 -0.651063 2.10622 121 97 77
2.86516 -0.354701 1.68161 64 69 77
3.43464 -0.269055 2.42834 44 45 48
2.9678 -0.871044 2.5497 46 41 41
3.9494 -0.351377 2.98188 77 81 85
3.00276 -0.772434 2.57211 98 86 80
3.24972 -0.709827 2.0057 72 73 81
3.05135 -0.570891 2.66684 136 131 127
3.61091 -0.653663 2.64631 49 37 33
2.86919 -0.691705 1.68323 49 46 44
3.73828 -0.452642 2.1103 70 71 75
3.67127 -0.707772 2.56658 113 85 62
3.08964 -0.696938 1.82574 205 150 99
3.85248 -0.727456 2.64725 213 146 73
4.09465 -0.867074 2.81024 35 32 31
2.78764 -0.32794 1.80075 55 63 72
3.72819 -0.830836 3.04759 42 29 19
3.59382 -0.390703 2.26938 54 53 56
3.72553 -0.850638 3.08248 40 29 22
3.11294 -0.724672 1.65001 114 84 67
3.3378 -0.912272 2.92424 49 41 40
3.2108 -0.671826 2.0454 72 73 78
2.5289 -0.95009 2.1492 159 149 138
3.49419 -0.349475 2.37089 51 50 54
4.18766 -0.724799 2.44483 204 152 108
4.02806 -0.791926 2.88417 37 32 31
3.35221 -0.250717 2.60754 25 26 36
3.8116 -0.69255 2.64537 197 140 91
4.0716 -0.413643 2.86356 83 87 91
3.33308 -0.291259 2.12776 43 47 52
3.36025 -0.947756 2.93719 21 16 20
3.28615 -0.330343 2.49708 59 55 57
3.31427 -0.708066 2.38881 91 78 76
3.45007 -0.733221 3.01337 92 74 57
3.2317 -0.530774 2.46636 101 86 77
3.51107 -0.705787 2.90553 238 173 99
3.39075 -0.61297 1.94424 147 113 113
3.6932 -0.630505 2.20759 109 83 65
3.31227 -0.930937 2.92543 56 51 54
3.02438 -0.820533 2.57098 78 72 71
2.55244 -0.530162 1.88502 30 29 32
3.43049 -0.694856 2.64619 208 144 82
3.17036 -0.510827 2.54552 115 100 91
3.22618 -0.310693 2.52159 71 65 66
3.48988 -0.677367 2.99209 233 164 73
3.40891 -0.687481 2.0026 119 92 73
3.58765 -0.199675 2.19219 102 104 102
3.57223 -0.2681 2.20815 96 94 92
2.83263 -0.721371 2.1246 226 171 130
4.03476 -0.811238 2.84825 30 26 26
3.13008 -0.470843 2.5849 115 103 94
4.26189 -0.63525 2.33613 97 91 86
3.06715 -0.571219 2.68419 112 98 91
3.18841 -0.511384 2.54319 103 89 82
2.73091 -0.708879 2.24556 200 204 230
3.52807 -0.57083 2.42259 19 14 17
2.89065 -0.696562 2.30546 230 176 126
3.20912 -0.39089 2.50383 86 79 74
3.53606 -0.678973 3.14407 65 55 54
3.6109 -0.70606 2.56535 61 48 45
2.5055 -0.775971 2.02993 223 162 110
3.46921 -0.308983 1.95064 146 147 149
3.20848 -1.02939 2.74918 49 45 47
3.30995 -0.330182 2.16317 31 34 40
4.15463 -0.646491 2.43385 167 149 143
3.12743 -1.13046 2.66718 57 51 52
3.77313 -0.572442 3.0473 62 48 43
2.80873 -0.953081 2.38959 102 97 96
3.51208 -0.209426 2.00473 208 211 212
2.85052 -0.710229 2.10567 231 173 114
3.22594 -0.53138 2.21998 16 16 21
4.01187 -0.697116 2.42586 211 157 110
3.48977 -0.668987 1.78711 134 124 121
3.07487 -0.735125 2.10563 78 72 75
3.31019 -1.15073 2.88572 64 62 64
3.63129 -0.679964 2.84469 214 152 95
3.37155 -0.228704 2.26656 157 160 160
3.74852 -0.267274 1.88461 134 132 133
3.65567 -0.551082 1.90561 47 46 57
3.73045 -0.689362 2.12629 140 101 71
3.66898 -0.659767 2.38409 110 83 60
3.61182 -0.208086 2.02752 219 221 219
3.18949 -0.230707 2.52399 103 104 103
3.30703 -0.632431 2.18483 24 23 25
3.31291 -0.271155 2.60526 50 50 54
3.23704 -1.14991 2.86052 69 69 72
3.97064 -0.691277 2.22549 136 119 114
3.40075 -0.231916 2.034 68 74 79
2.65146 -0.751043 1.84667 65 53 46
3.69075 -0.706289 2.88588 229 164 95
3.92982 -0.490384 3.02559 42 42 43
3.63084 -0.530759 2.28601 33 27 30
3.29106 -0.571142 2.20487 18 17 22
3.96909 -0.769872 2.34795 201 142 94
2.62945 -0.569516 1.82708 34 34 37
3.22952 -0.270906 2.50572 77 74 75
3.46644 -0.709451 1.98528 129 97 73
4.34075 -0.758131 2.43544 124 101 87
2.88003 -0.530277 1.55527 70 72 74
3.14473 -0.453869 2.61844 94 84 81
3.33301 -0.535457 1.58622 187 177 186
3.45894 -0.486439 2.43332 22 19 20
3.16885 -0.670202 1.8866 169 145 148
2.86492 -1.16904 2.43963 58 56 57
3.77024 -0.651406 2.22644 114 84 64
3.97143 -0.410776 2.88539 48 48 47
3.32749 -0.911188 2.88844 45 38 40
3.70795 -0.35038 1.90067 144 140 139
2.68744 -1.00952 1.90689 11 8 7
3.13133 -0.695716 1.80626 194 137 92
4.128 -0.569331 2.77789 41 40 42
3.66871 -0.234644 2.26284 99 99 101
3.67169 -0.709106 2.40633 41 33 33
3.58993 -0.690796 2.28634 66 48 37
3.49169 -0.653438 1.74383 75 81 77
3.07689 -0.670989 2.6305 157 132 118
3.56823 -0.431149 1.82624 158 164 181
2.70687 -1.06863 1.9857 19 16 16
3.53895 -0.356852 1.88687 173 190 193
3.88802 -0.730122 2.92203 37 24 15
3.40745 -0.590546 2.56075 25 18 22
3.92835 -0.58877 3.0053 45 39 41
3.61149 -0.690177 2.36548 53 46 45
3.78968 -0.271369 2.04474 120 118 116
3.53068 -0.693231 3.08583 237 175 107
3.05218 -0.569613 2.64922 138 129 125
3.74974 -0.271152 2.12518 73 76 79
3.60721 -0.570464 2.26498 30 24 26
3.81079 -0.670254 2.02643 124 96 76
3.00909 -0.991793 2.58794 42 39 41
3.20923 -0.411008 2.50395 87 79 74
3.21278 -0.226003 2.40561 105 111 118
3.99015 -0.689188 2.06882 170 133 106
3.20927 -0.595796 1.90306 150 120 111
3.49301 -0.297869 2.06574 49 54 62
3.95131 -0.725574 2.76495 196 133 65
3.01262 -0.891147 2.5489 37 30 30
3.55205 -0.230379 1.98427 174 177 176
3.75009 -0.68845 2.34602 64 54 50
2.91955 -0.675429 2.34869 192 164 147
3.21823 -0.557542 1.59959 137 125 151
3.33111 -0.930746 2.90557 40 34 37
3.31628 -0.531257 2.6025 80 66 61
3.19064 -0.686679 2.12482 70 70 73
3.1918 -0.630675 2.22436 159 148 56
3.05122 -0.723963 1.76615 173 117 73
2.78903 -0.410559 1.7242 42 46 53
3.17244 -0.611996 1.86562 186 160 165
3.35174 -0.711948 2.44586 165 124 97
3.67082 -0.68931 2.28613 91 64 44
4.09148 -0.695843 2.48544 207 154 108
3.55043 -0.710159 2.36567 40 33 32
2.92734 -0.51417 1.5787 40 48 58
3.05011 -0.23071 2.64526 122 121 120
3.28851 -0.410507 2.42436 65 59 58
3.63078 -0.692931 2.62598 139 98 65
4.15163 -0.72859 2.54572 211 154 98
3.51501 -0.631082 1.76394 110 107 101
3.89012 -0.887816 2.96126 120 99 82
3.01911 -0.534112 2.52545 234 230 228
3.7166 -0.828874 3.12941 37 27 20
3.6112 -0.309712 1.89237 127 128 127
4.14338 -0.707404 2.71707 35 26 24
3.25683 -1.19076 2.88023 75 73 76
3.23015 -0.71109 2.68548 148 138 132
2.66972 -0.490087 1.8234 49 45 44
2.58785 -0.511677 1.90183 41 40 40
2.99306 -0.674594 2.34625 223 186 152
3.13109 -1.25154 2.68147 82 79 84
3.14122 -1.23578 2.64482 58 52 54
4.08941 -0.451313 2.78562 43 41 37
3.22409 -1.25297 2.79016 53 52 56
3.50685 -0.233906 2.36323 100 100 101
3.77247 -0.655209 2.30712 149 112 85
3.36919 -0.410804 2.04422 32 34 41
4.13201 -0.710524 2.70735 35 26 18
3.41027 -0.269865 2.04616 75 81 85
3.27152 -0.687486 2.14607 100 79 65
4.21072 -0.652031 2.26785 216 204 205
2.84821 -1.27029 2.46685 70 69 72
3.62368 -0.371995 2.34123 53 53 59
3.8502 -0.726727 2.66502 214 147 71
3.83251 -0.651612 2.92981 143 109 75
3.88866 -0.742068 2.22939 74 61 57
3.3305 -0.69576 2.56638 208 147 89
3.8102 -0.721902 2.78562 217 149 78
2.98111 -0.633925 1.57409 93 91 88
2.59118 -0.712395 2.22542 232 177 118
3.0525 -1.03132 2.6804 134 131 127
3.59098 -0.692502 2.98589 233 170 104
3.62899 -0.199484 2.06927 209 210 203
3.22776 -0.611701 2.52313 96 76 70
3.80724 -0.371778 1.98064 106 103 103
3.53017 -0.590806 1.88709 65 67 72
2.9506 -0.693587 2.46606 230 225 228
3.17101 -0.671425 1.78541 142 107 99
3.23766 -0.783697 2.87948 142 133 118
3.83085 -0.692581 2.92513 112 83 57
2.64597 -1.09019 1.88905 41 40 37
2.58802 -0.611426 1.93935 53 46 42
2.69088 -0.743351 1.94801 220 183 161
2.72293 -1.03134 1.79748 26 24 22
3.79288 -0.909617 3.00786 44 34 28
2.95073 -0.710996 1.70625 197 148 97
3.01656 -0.651362 2.68752 159 130 108
3.74975 -0.491013 1.84611 73 76 80
3.85086 -0.570226 3.04436 34 28 25
3.2692 -0.213739 2.40428 158 161 161
3.63245 -0.432061 1.7854 172 178 191
3.03044 -0.707809 1.8455 197 143 90
3.00608 -0.889611 2.56557 31 26 27
3.31568 -1.32424 2.92113 66 69 78
3.48544 -0.588974 1.58457 96 100 108
2.96878 -1.27149 2.60656 71 69 70
3.16754 -1.17178 2.7291 67 65 68
3.38523 -0.684657 2.06767 108 116 110
2.91051 -0.700789 1.81974 197 145 89
2.82631 -0.875357 1.70476 28 22 17
2.75042 -0.610855 1.84414 39 38 40
4.09023 -0.709554 2.64484 196 143 95
2.8469 -0.597701 1.70684 202 158 111
3.69364 -0.193548 2.065 223 223 219
3.61164 -0.707202 2.44551 46 38 37
2.7286 -0.888373 1.82472 37 30 25
2.73673 -0.853552 1.82898 46 36 31
3.17078 -0.691802 1.92592 175 132 104
3.58879 -0.370704 2.34571 49 48 54
3.49003 -0.630608 1.90621 52 46 55
3.37029 -0.590811 2.06391 25 22 30
3.71113 -0.511068 2.16806 61 61 63
3.791 -0.65546 2.38422 48 43 44
4.12942 -0.405277 2.8089 77 83 90
2.99795 -0.721869 1.59901 176 176 162
4.07255 -0.847244 2.86317 16 13 12
2.89169 -1.32993 2.54584 57 57 61
3.2905 -0.669768 2.16428 87 77 60
2.73931 -0.787595 1.8118 39 33 30
2.73225 -0.698549 2.08877 213 208 229
3.77096 -0.670706 2.36501 55 48 48
3.04328 -0.674123 2.5226 101 96 101
3.27059 -0.571226 2.44567 88 70 61
3.98575 -0.627552 2.88273 38 30 26
3.14997 -0.616924 2.21192 190 178 80
2.84359 -0.748847 2.47135 138 116 98
3.16575 -0.611325 2.49881 145 123 113
3.9886 -0.772598 2.39215 200 140 90
3.31019 -0.214178 2.38555 134 136 136
3.96197 -0.499832 3.03628 57 56 58
2.8507 -0.712954 1.8062 205 152 94
3.9426 -0.6544 2.26918 101 83 74
3.05436 -0.430749 2.64844 112 104 98
2.81148 -1.09015 2.40595 100 95 94
2.57317 -0.750119 1.98849 104 86 71
3.11076 -0.684892 2.22352 87 71 61
3.05441 -0.739367 1.69919 182 127 80
3.63085 -0.690572 2.86556 223 162 100
2.60975 -0.747012 2.14556 213 199 214
3.21048 -0.726528 2.58593 231 169 109
3.15248 -0.65382 2.26507 75 64 51
2.85111 -0.695776 2.34558 232 176 125
3.09167 -1.09091 2.64867 64 58 59
3.45171 -0.490079 2.04597 21 24 33
3.52722 -0.410348 1.86643 134 143 156
3.8715 -0.934587 2.97681 59 50 45
3.88686 -0.770606 2.98286 43 35 33
3.81082 -0.672969 2.58496 191 136 90
3.83517 -1.02897 2.98906 46 35 29
3.56266 -0.21994 2.29676 88 86 85
3.2726 -0.590706 2.4271 100 80 70
3.55078 -0.268411 2.15138 112 110 107
3.29144 -0.631225 1.90409 175 153 156
2.69004 -1.09135 1.98625 17 15 15
3.43014 -0.311346 2.4849 31 32 38
3.44992 -0.297231 1.94764 147 153 156
3.18966 -1.17068 2.80544 81 80 84
3.47062 -0.57052 1.60573 95 96 112
3.49211 -0.251241 1.92991 216 218 218
2.73059 -0.671883 1.84458 35 31 32
3.85067 -0.671617 2.16388 133 109 95
2.64967 -0.72576 2.22748 237 182 129
3.20139 -0.741223 2.00723 68 68 77
3.6922 -0.726187 2.16697 127 93 68
2.67322 -0.682255 1.7732 42 35 36
3.76929 -0.431563 1.86381 97 97 95
2.65015 -0.370619 1.74435 67 65 66
3.38968 -0.610993 1.78657 88 91 90
2.93278 -0.669549 1.56691 50 51 55
3.51948 -0.37658 1.91346 133 142 146
3.90476 -0.741566 2.26679 60 48 46
2.55819 -0.77534 1.95429 218 154 102
3.45255 -0.723391 2.42546 83 63 48
3.05035 -0.688139 2.3856 165 129 101
2.64943 -0.631557 1.8845 41 38 37
3.17229 -0.575088 1.80619 222 196 207
3.87084 -0.670308 2.28535 139 106 86
2.95057 -1.17079 2.60541 67 66 67
3.34557 -0.261813 2.20333 225 228 227
3.09193 -0.307929 2.68547 88 82 78
3.51083 -0.693129 3.04582 236 172 101
3.11382 -0.27061 2.56852 114 109 103
2.63161 -0.550237 1.80575 46 47 51
3.10846 -0.729271 2.70752 149 119 89
3.26306 -0.734354 2.85399 72 65 59
3.43853 -0.430618 1.9733 31 34 42
2.76966 -1.29329 2.44615 60 62 66
3.19281 -0.490674 2.24798 15 16 20
2.79101 -0.727063 2.10416 221 182 159
2.96673 -1.29039 2.54826 48 46 50
2.96969 -0.728959 1.62359 107 95 81
2.87031 -0.746041 2.39006 229 169 114
3.45892 -0.413672 1.72273 92 97 104
3.75468 -0.273698 2.02841 132 134 136
3.63042 -0.211425 2.14804 124 121 119
3.90511 -0.753169 2.44379 198 138 88
3.39037 -0.309223 2.32972 65 64 66
3.56817 -0.43118 2.38502 31 28 35
4.23156 -0.692704 2.38528 191 162 141
3.11601 -0.970471 2.63152 54 47 48
3.21334 -0.951153 2.80266 56 54 56
2.79727 -0.992798 2.44327 131 124 118
3.13778 -0.714439 2.57043 133 117 110
2.73629 -0.670629 1.70886 39 34 36
3.15135 -0.684737 2.16575 81 73 71
3.81258 -0.292567 1.94453 124 122 120
2.91233 -0.376125 1.64467 71 75 84
2.72879 -1.07492 1.9476 7 6 6
2.94011 -1.31789 2.59692 63 62 64
2.88683 -0.531246 1.62097 56 62 68
2.4584 -0.75242 2.12591 118 104 98
3.59031 -0.665668 2.64563 50 38 36
2.63089 -0.690806 1.90434 43 38 36
3.14964 -0.671213 1.5847 182 149 137
3.59418 -0.287902 2.20852 61 60 62
3.54879 -0.571521 1.92481 69 68 75
2.68005 -0.768368 2.34026 152 141 131
3.96976 -0.465071 3.04052 59 58 60
3.77087 -0.722003 2.76494 216 146 65
3.87167 -0.735958 2.20411 150 126 115
2.9913 -1.07152 2.56953 39 37 40
3.63083 -0.690899 2.92585 228 166 102
3.32776 -0.579368 1.4745 145 141 141
3.95068 -0.510301 2.96778 45 43 43
3.08989 -0.73486 1.98489 211 149 98
3.89032 -0.694793 2.40537 148 111 81
3.77624 -0.470425 2.06688 48 47 53
2.64852 -0.745481 2.20301 223 179 156
3.16891 -0.511225 2.56457 108 93 85
2.9492 -1.21008 2.52931 56 54 56
2.76954 -0.730749 2.4064 151 126 103
2.75064 -0.330706 1.72529 75 82 89
3.39693 -0.629921 1.74726 172 166 170
3.54959 -0.489542 1.68643 133 135 131
3.11892 -1.23368 2.70431 100 98 100
3.51006 -0.648254 1.84606 148 125 122
2.77218 -0.650316 1.72665 50 51 51
3.24994 -0.290794 2.46503 71 68 67
3.80655 -0.471265 2.00286 90 84 82
3.89299 -0.352798 2.96476 94 94 91
3.67061 -0.692608 2.84538 221 160 98
3.45552 -0.570707 2.44973 23 11 8
3.36764 -0.611177 2.02681 70 64 62
3.43552 -0.632147 1.9251 144 126 138
2.86262 -1.18849 2.43847 56 54 55
3.41073 -0.255323 2.4025 69 68 70
2.75325 -0.728935 2.42353 77 68 66
3.97082 -0.708818 2.70552 207 148 91
3.3281 -0.329952 2.62243 31 29 33
3.69125 -0.655787 2.52518 35 28 29
3.57343 -0.471529 1.909 83 85 85
2.82242 -1.17826 2.40847 86 79 72
2.49177 -0.730677 2.18407 100 90 81
3.6724 -0.228703 1.93018 202 204 201
2.80868 -0.747351 2.20526 209 169 145
3.98821 -0.690605 2.93865 38 33 32
3.22838 -0.530798 2.50348 95 79 72
3.05199 -0.697942 1.80535 197 145 97
4.05166 -0.728537 2.28508 201 154 121
3.25349 -0.559228 1.53373 154 145 168
2.74425 -0.992681 1.95986 54 47 46
2.87 -0.731459 2.36653 233 211 185
3.42793 -0.730709 3.00967 102 76 50
3.95082 -0.529774 3.00634 43 43 45
3.31648 -0.471475 2.6221 47 39 41
3.33042 -0.689255 2.02491 66 70 74
2.7692 -0.295097 1.7476 99 104 108
3.95049 -0.691123 2.08562 172 135 107
3.4134 -0.309974 2.12722 42 48 50
3.83031 -0.689359 2.22592 156 120 95
3.75325 -0.627282 2.59008 39 30 32
2.78901 -0.571125 1.75856 48 43 43
3.89181 -0.725444 2.60552 211 146 78
3.56783 -0.450816 1.74645 178 177 174
3.21238 -0.657828 1.9684 69 71 77
2.65282 -0.550417 1.82798 37 39 41
2.67109 -0.750229 1.90705 79 60 47
3.25193 -0.550725 2.44638 97 81 72
3.67036 -0.571279 2.24657 36 29 30
2.94945 -0.698314 1.7666 200 149 98
2.4797 -0.803302 2.11842 132 125 126
2.572 -0.63052 1.88591 51 50 51
2.76351 -0.756714 1.70137 36 32 31
4.0126 -0.450014 2.82675 46 44 41
4.1902 -0.710392 2.50588 207 154 108
3.43209 -0.530769 2.04472 20 19 29
4.17064 -0.676115 2.22848 181 162 158
3.67072 -0.250212 2.16727 86 87 89
2.59024 -0.829318 2.24585 65 62 62
2.69948 -0.865187 1.76253 43 37 33
3.12937 -1.2117 2.68687 84 80 82
3.07045 -0.706859 1.9453 219 159 101
3.37371 -0.332418 2.43193 29 29 38
3.23878 -0.90853 2.85812 61 61 63
2.89807 -0.930855 2.53995 49 49 51
3.6492 -0.590884 2.28451 35 28 30
2.79117 -0.729997 1.72617 49 42 39
4.05038 -0.69705 2.58485 213 159 107
3.39082 -0.708128 2.82522 234 167 95
4.00941 -0.470604 2.86739 38 35 33
3.29187 -0.591327 2.16673 18 15 22
3.46079 -0.601937 1.94824 35 31 41
3.45091 -0.71016 2.72579 225 157 87
3.57075 -0.689621 2.40508 49 43 42
3.51176 -0.271097 2.32683 70 69 72
3.33148 -0.570329 1.54619 165 158 171
2.58921 -0.783613 2.01282 119 111 114
3.88986 -0.550056 3.02583 39 37 35
3.18952 -0.950265 2.72901 68 62 62
3.4102 -0.851475 2.93059 35 23 18
3.19588 -0.951133 2.82018 72 71 73
2.75188 -0.530524 1.72601 51 53 55
3.45052 -0.230479 2.14525 170 172 173
3.25144 -0.670588 1.40399 153 138 153
3.52758 -0.371243 2.4423 36 34 41
2.51399 -0.868721 2.16418 183 173 160
3.78251 -0.385579 1.87748 89 92 95
3.54965 -0.592038 1.84556 114 116 108
3.27028 -0.588079 1.66648 181 157 167
3.23146 -0.694776 2.80656 236 171 101
3.41115 -0.670214 1.92542 99 83 87
2.74995 -0.991373 1.70483 24 22 20
3.74847 -0.634095 2.20197 153 121 96
3.90365 -0.767455 2.98029 53 48 49
3.01154 -1.35092 2.60447 66 67 73
3.30435 -0.613408 2.18322 15 15 19
4.13031 -0.707853 2.30622 172 153 157
3.11068 -0.708678 1.64571 166 120 83
2.76449 -0.404941 1.80749 108 101 102
3.13793 -0.473221 2.22511 39 37 44
2.73252 -0.315269 1.70668 111 114 116
3.35041 -0.711757 2.58534 196 138 86
4.00156 -0.562869 2.98001 61 64 67
3.33092 -0.591027 2.56662 69 57 55
3.47403 -0.721853 2.36587 51 45 45
3.82824 -0.951134 3.00295 50 41 36
2.52603 -0.786916 2.12511 148 115 89
3.8495 -0.970556 2.98272 46 37 33
2.92723 -0.99074 2.5501 60 58 59
3.88412 -0.628813 3.04145 32 25 26
3.30785 -0.311339 2.36409 84 82 80
3.28824 -0.250432 2.20372 70 73 75
3.38875 -0.22882 2.20643 156 159 160
3.37097 -0.232385 2.16589 151 151 151
2.82834 -0.571945 1.68511 66 65 64
2.77092 -0.698616 2.10544 220 222 235
3.34914 -0.59129 1.78462 155 145 149
3.15039 -0.530811 2.56533 123 107 98
3.25071 -0.588222 1.64551 199 176 185
3.22837 -0.510985 2.54401 83 70 66
2.72669 -0.891582 1.84069 39 31 26
2.49321 -0.732098 2.0858 217 174 131
3.67047 -0.767466 3.17972 37 28 24
3.83096 -0.706731 2.52579 208 149 95
3.43368 -0.493485 1.80131 181 185 185
3.9506 -0.708343 2.46565 208 151 100
3.65637 -0.290824 1.92703 102 104 108
3.63399 -0.630897 2.26891 141 104 75
3.65008 -0.712339 2.32556 155 114 79
2.90243 -0.558713 1.61641 36 45 52
3.19626 -0.575872 1.92528 187 171 180
3.94806 -0.511688 2.8859 75 65 61
4.01085 -0.689176 2.24766 85 82 85
3.42733 -0.510252 1.68645 126 118 145
2.74561 -0.431089 1.82246 48 45 54
3.30985 -1.25048 2.88582 70 69 72
3.15238 -0.471049 2.24467 34 32 40
2.51639 -0.973621 2.15627 143 136 124
3.59256 -0.618171 2.57848 33 26 27
4.23117 -0.656209 2.36473 126 124 127
2.8456 -1.09139 2.4488 65 64 65
2.67181 -0.414413 1.71037 114 116 116
3.88985 -0.511158 3.00546 44 39 37
3.54029 -0.723119 2.85529 230 160 74
3.07096 -1.05125 2.648 67 60 61
3.49297 -0.453338 1.7642 112 115 102
3.31046 -0.631545 2.12628 87 83 75
3.25541 -1.32888 2.88187 89 88 90
3.19483 -0.390858 2.48964 102 93 88
3.59062 -0.694449 3.06561 238 176 107
3.49175 -0.411166 2.06347 41 45 53
2.73078 -0.530154 1.84419 33 33 40
2.7116 -0.830365 1.78607 22 16 15
3.23563 -0.710131 2.13764 109 98 97
3.18597 -1.10443 2.74498 63 61 63
3.65058 -0.70491 2.9856 239 177 105
2.5704 -0.809977 2.18518 104 96 91
3.75086 -0.694275 2.52539 137 100 68
4.06405 -0.550235 2.84151 37 33 29
2.83048 -0.430539 1.66622 44 48 56
2.69293 -0.747895 2.36247 51 44 43
3.43033 -0.265848 2.1456 154 156 156
2.6507 -0.711478 2.18575 225 227 241
2.91434 -1.15135 2.56169 46 46 49
3.03715 -1.0502 2.66327 96 92 90
3.09057 -1.1909 2.66548 74 71 73
3.86845 -0.570956 3.02473 37 30 27
3.25034 -0.430849 2.44519 80 72 68
3.91942 -0.807881 2.87066 194 148 108
3.20962 -0.608716 1.62566 207 183 192
3.10936 -1.05134 2.64633 58 53 54
3.31816 -0.323669 2.63583 35 33 40
3.56179 -0.335304 1.93719 96 99 100
4.0327 -0.352526 2.81359 132 134 136
3.59072 -0.691032 2.92613 229 167 103
2.63068 -0.750479 1.94716 67 55 48
3.62769 -0.371654 1.82769 104 136 124
3.65251 -0.742945 2.16269 143 103 77
2.67232 -0.952523 1.77969 25 20 23
3.47087 -0.692904 2.64539 205 143 82
3.3488 -0.29086 2.56405 31 33 38
2.98219 -0.667944 1.59776 87 88 79
3.18946 -0.470635 2.5433 94 81 76
2.67133 -0.697449 2.12696 224 193 173
2.81074 -0.3432 1.62695 89 96 99
3.31119 -0.695809 2.86527 235 170 97
3.78491 -0.708931 3.03868 56 47 42
3.43808 -0.632766 1.68329 131 134 138
3.73059 -0.211349 2.00642 138 137 135
3.70882 -0.410873 2.18518 59 62 67
2.72767 -0.632262 1.80262 44 42 40
4.09252 -0.691072 2.72826 36 26 16
3.80976 -0.555136 2.06109 142 138 134
3.03009 -0.656304 2.50542 165 167 180
3.6132 -0.637602 2.42265 62 52 50
4.01104 -0.672652 2.22574 114 99 92
3.75138 -0.51105 2.12769 60 62 65
3.48838 -0.656275 2.48183 19 15 20
3.52043 -0.416762 1.85074 111 125 146
3.14929 -0.650526 2.60411 131 109 97
3.85061 -0.707909 2.30517 118 90 70
3.22968 -0.570095 2.22433 17 16 21
3.48878 -0.630762 1.78607 111 106 104
3.48822 -0.590155 1.7229 91 98 98
3.31057 -0.585443 1.68678 206 185 195
3.98925 -0.651855 2.94359 45 42 43
3.8292 -0.721087 2.22987 65 53 50
4.04962 -0.551766 2.94605 50 50 55
3.20957 -0.548662 1.74552 224 203 213
2.91081 -0.707519 2.16545 232 175 116
3.41289 -0.628811 1.88781 118 98 91
3.02911 -0.212598 2.59174 213 214 210
3.37176 -0.370641 2.10572 39 41 48
3.69092 -0.70831 2.72565 220 157 93
3.52489 -0.58969 2.43653 14 9 15
3.28269 -0.298855 2.51912 60 58 59
4.31221 -0.650909 2.42695 184 182 182
2.88611 -1.27044 2.48852 71 68 71
3.39105 -0.696923 2.94538 234 166 93
2.73025 -0.510373 1.70491 35 37 44
2.93122 -1.29192 2.52637 74 72 74
3.65022 -0.410993 2.26545 55 55 60
3.79112 -0.731455 3.04151 55 45 39
2.77095 -0.813806 1.8213 43 37 31
3.316 -0.251916 2.54708 66 67 68
3.00969 -0.971145 2.58577 28 24 27
3.2106 -0.609862 1.88677 166 145 150
4.17104 -0.756245 2.62388 110 87 67
3.27056 -0.697329 2.72543 229 171 113
3.0493 -0.250423 2.70276 108 106 105
3.93189 -0.672884 2.02493 143 108 85
2.57448 -0.710677 2.26248 141 110 84
3.08761 -0.612439 2.67843 113 96 88
2.57597 -0.629384 1.90421 45 40 37
3.02851 -0.652094 2.54589 151 132 122
3.5318 -0.589314 1.72657 94 101 103
3.10868 -0.831011 2.66617 71 62 59
3.81019 -0.631361 3.02407 38 28 20
4.11001 -0.510073 2.90734 60 61 67
2.90557 -0.414786 1.66515 52 57 67
3.55597 -0.489725 2.30988 45 43 44
3.08877 -0.290819 2.64232 104 98 94
3.23336 -0.572041 2.20715 21 20 25
3.47252 -0.270039 2.24684 99 98 98
2.96977 -1.17062 2.58469 75 73 75
2.86493 -0.598517 1.67769 177 138 106
2.88979 -0.721573 2.28368 225 166 113
3.84869 -0.673316 2.58405 187 131 87
3.67078 -0.691348 2.74592 216 154 96
3.50786 -0.708788 1.9253 66 53 54
4.12883 -0.450588 2.77931 38 38 34
2.79085 -0.747781 2.18558 200 176 172
3.94221 -0.821563 2.95983 45 35 32
2.61231 -0.731348 1.92788 71 58 47
2.73134 -0.732064 2.14676 238 240 246
3.5338 -0.450512 2.34818 40 38 39
3.60869 -0.568541 1.88422 115 115 121
2.78037 -0.743014 1.87886 191 142 97
3.59065 -0.531389 2.34522 33 26 29
3.99047 -0.727003 2.44663 210 152 103
3.61068 -0.688828 2.70649 210 148 90
3.85164 -0.724384 2.527 201 138 84
4.0686 -0.669445 2.78418 39 31 25
3.40873 -0.731555 2.98753 115 87 55
2.76862 -0.792244 1.70756 24 21 18
3.51079 -0.269421 2.24815 86 84 84
3.78871 -0.231446 2.00375 132 130 128
4.05014 -0.672695 2.14674 156 121 100
3.86665 -0.660644 2.5055 177 126 83
4.17113 -0.693926 2.38643 195 154 124
3.15446 -0.651921 1.88566 168 139 142
3.97107 -0.610798 2.86761 38 30 22
4.1702 -0.688323 2.30522 185 171 171
3.39216 -0.594298 1.9045 147 138 132
4.1902 -0.694708 2.50562 205 153 109
2.63056 -0.770953 1.82561 59 46 40
3.04941 -0.723501 1.54889 129 112 96
3.81187 -0.631694 2.96631 119 95 72
3.25065 -0.709125 2.78542 234 169 102
2.90753 -1.12993 2.5876 49 49 53
3.33037 -0.531718 1.62668 209 195 204
3.6698 -0.411433 2.24535 53 53 59
3.28989 -0.250874 2.18487 75 75 76
3.71188 -0.664992 2.56856 39 29 28
3.67169 -0.6788 2.72596 212 153 98
3.19066 -0.671039 2.08569 69 70 75
2.58661 -0.71097 1.88002 39 35 40
3.9692 -0.729217 2.92757 34 30 28
3.15058 -0.654622 2.16577 80 75 71
2.8729 -1.13086 2.54518 49 49 53
2.90448 -0.594241 1.64607 170 142 113
3.2348 -0.651434 2.43167 133 109 99
3.45018 -0.693818 2.66632 211 148 85
2.65794 -0.394227 1.83974 57 63 71
3.60993 -0.610436 2.32411 57 44 39
4.07137 -0.674548 2.20667 124 112 113
3.47036 -0.55226 2.00403 34 33 39
3.61103 -0.677465 3.0654 225 163 104
3.63484 -0.640121 2.54579 42 36 39
3.79221 -0.727491 2.50465 200 142 90
3.9691 -0.628753 2.92755 44 39 37
3.33033 -0.431284 2.54427 47 42 43
3.97124 -0.749917 2.80517 42 27 16
3.47257 -0.451098 2.02651 29 32 42
3.48915 -0.610566 1.82732 169 161 155
3.9509 -0.708832 2.76548 202 144 88
3.35117 -0.611991 1.76741 149 133 140
3.85099 -0.610407 3.00468 38 29 23
3.27123 -0.534486 1.8633 171 153 164
3.56275 -0.584267 1.70437 97 111 107
2.51224 -0.74939 2.08798 154 136 122
4.06767 -0.949848 2.84826 28 22 18
3.50992 -0.509378 1.76626 162 160 149
3.05462 -1.15064 2.6775 139 135 134
3.06973 -0.649997 2.71145 90 80 78
3.97055 -0.390893 2.96508 69 72 76
3.45211 -0.552186 1.78564 132 133 134
3.53015 -0.630828 1.80395 91 85 94
2.90846 -0.385666 1.66447 57 61 71
2.79737 -0.403558 1.83345 134 138 145
3.71023 -0.231879 2.16354 126 123 121
4.1325 -0.471206 2.75156 90 86 78
4.03098 -0.67763 2.36224 163 143 144
3.35156 -0.251673 2.24527 191 193 193
3.05764 -0.351706 2.63221 107 100 93
3.47004 -0.250354 2.14522 149 150 149
3.23674 -0.20014 2.38158 225 222 217
2.53478 -0.886799 2.15159 137 131 123
2.79098 -0.712168 2.04597 230 172 112
3.45131 -0.65208 1.96663 61 46 45
3.59095 -0.723093 2.84465 230 160 72
3.24799 -0.216703 2.44245 170 173 174
3.62822 -0.247736 1.94972 162 161 160
4.14401 -0.639735 2.43593 191 141 110
2.73989 -0.801656 2.36748 162 150 138
2.90872 -0.890688 2.52717 54 52 53
3.09015 -0.652908 2.30451 116 108 103
3.57148 -0.410719 2.40489 48 44 49
3.52712 -0.491403 1.88487 120 124 131
2.71461 -1.0319 1.70707 54 51 47
3.15128 -0.743142 1.92707 204 143 94
3.29128 -0.693877 2.5051 184 147 145
2.55218 -0.814846 2.14798 157 129 116
4.19158 -0.691536 2.26575 172 156 151
3.00877 -0.890405 2.62815 54 49 49
3.12752 -0.721427 1.72327 116 79 67
2.92854 -1.17074 2.54765 73 72 73
2.79337 -0.66886 1.70942 56 57 57
3.79469 -0.876583 2.99328 42 31 26
4.05423 -0.761993 2.85442 11 7 7
2.73195 -0.470249 1.82528 41 36 38
3.08353 -0.232984 2.67853 81 77 77
3.69124 -0.729686 3.10453 73 62 55
3.08365 -0.60628 2.22931 195 183 80
3.05032 -0.651199 2.68318 122 115 112
2.60826 -0.75415 2.00139 180 137 98
3.33072 -0.291395 2.62162 23 24 32
3.57102 -0.653939 2.64614 42 31 28
2.89279 -0.714247 1.70799 114 90 66
3.41027 -0.25383 2.38605 65 65 66
3.08404 -0.585073 2.29423 61 58 60
3.18682 -0.723553 2.00469 63 63 72
2.83079 -0.752233 1.72258 55 48 40
3.65088 -0.706625 2.90582 232 168 98
3.42991 -0.673985 1.84661 171 133 118
2.92817 -0.77219 2.54893 64 60 59
3.24924 -0.61306 2.20607 62 59 31
3.57332 -0.28464 2.23224 69 67 69
3.29771 -0.251345 2.605 73 73 75
3.93106 -0.669968 2.20786 157 118 93
3.7319 -0.890514 3.04691 36 25 16
3.22203 -0.663639 1.77326 209 180 192
3.41705 -0.510997 2.48897 22 13 12
3.31111 -0.61 1.82555 147 133 134
3.35078 -0.710225 2.76585 228 166 102
4.08869 -0.547133 2.94445 73 72 74
3.33066 -0.569723 1.72563 182 169 177
3.53074 -0.431087 2.40575 32 29 34
3.77075 -0.707584 2.84539 224 160 91
4.27091 -0.638741 2.3249 181 176 172
2.88927 -0.744455 1.72456 147 114 85
4.14417 -0.592602 2.67994 106 105 105
3.3145 -0.371251 2.60675 39 37 40
3.41425 -0.269255 2.44989 42 43 46
3.98786 -0.39418 2.98244 56 59 64
3.1115 -0.571007 2.60621 133 116 106
3.54994 -0.371118 2.36504 47 47 51
3.009 -0.912126 2.60681 49 44 44
2.61087 -0.473076 1.86509 55 49 46
3.29123 -0.525167 1.78471 213 193 204
2.79629 -1.1506 2.48171 70 68 69
2.77064 -0.489476 1.72335 64 63 64
3.33154 -0.271704 2.08661 65 70 74
3.25025 -0.697683 2.7454 230 168 104
3.13333 -0.631349 1.68599 186 160 160
2.82169 -0.740941 2.20711 209 189 208
3.6111 -0.410412 2.34706 40 38 45
2.77855 -1.06965 2.4113 132 124 118
3.57177 -0.640405 2.49307 43 39 39
2.55777 -0.654758 1.84462 28 25 32
3.6114 -0.613599 1.9188 32 31 34
3.05153 -0.697463 1.78545 198 146 100
3.39846 -0.789067 2.99879 39 27 27
3.53287 -0.49249 1.84325 137 142 159
3.5343 -0.650979 1.9652 34 25 26
4.02874 -0.450793 2.98473 73 74 77
4.09043 -0.729831 2.28504 209 156 115
3.19109 -0.570778 2.52603 121 102 92
3.25144 -0.57204 1.74414 211 188 198
2.8124 -1.09156 2.44581 99 95 95
3.34847 -0.248534 2.184 94 96 99
3.22741 -0.692234 1.48599 126 103 84
3.691 -0.678293 2.64668 202 144 92
3.37202 -0.214247 2.28683 164 167 167
2.74792 -0.59284 1.80645 39 37 38
3.11048 -0.707255 1.98515 209 149 95
3.72835 -0.33082 2.14632 73 76 81
2.7899 -0.49011 1.80029 36 36 45
3.651 -0.689671 2.28646 82 56 39
3.77293 -0.713345 2.04561 157 118 86
3.42745 -0.550807 2.52338 19 11 12
4.02842 -0.649362 2.82452 36 27 19
3.89005 -0.69829 2.48594 211 156 104
3.68949 -0.809037 3.10592 48 36 28
3.94965 -0.772071 2.88844 26 17 11
3.97093 -0.330901 2.90518 94 96 95
4.05116 -0.696993 2.4668 212 159 112
3.75083 -0.707743 2.5857 214 154 97
3.16927 -0.230901 2.56555 92 92 92
3.3102 -0.57016 1.58604 200 189 197
2.74289 -1.04593 1.72332 27 24 21
3.36061 -0.60794 1.51667 90 107 129
3.47236 -0.310265 1.98543 58 65 71
3.76985 -0.572038 2.1247 37 36 40
3.41061 -0.646244 2.1267 29 25 30
2.80428 -1.12908 2.39099 116 112 110
3.65799 -0.646597 2.21366 120 92 69
3.65398 -0.312355 1.88549 123 125 122
3.59022 -0.627964 2.34568 125 94 71
3.22306 -0.889749 2.76725 90 82 83
2.69076 -0.510034 1.80415 39 39 41
3.00934 -0.310798 2.62866 136 130 123
3.99089 -0.491066 2.96723 46 46 50
3.23327 -0.370524 2.4471 89 82 79
2.55243 -0.830698 2.20679 83 79 78
2.62564 -0.593661 1.90113 46 44 46
3.57601 -0.271166 1.9124 159 158 158
3.815 -0.853354 2.97145 45 34 29
3.7704 -0.69756 2.90577 230 169 101
2.49426 -0.744337 2.0737 236 188 142
3.52529 -0.575801 2.43585 10 7 12
2.73526 -0.559129 1.64899 61 63 69
2.90839 -0.990503 2.52832 60 59 60
3.7678 -0.674289 2.86452 207 145 85
3.43206 -0.308943 2.0863 47 52 56
3.75011 -0.231602 2.02519 133 131 128
2.77127 -0.747819 2.1874 213 192 189
3.43086 -0.250847 2.52498 31 32 41
3.85877 -0.590956 2.90969 60 43 23
3.47099 -0.450588 2.44613 24 22 23
3.8104 -0.67036 2.38559 57 51 50
3.11024 -0.725702 1.66559 154 105 72
4.03171 -0.70842 2.32721 182 150 135
3.5912 -0.211903 2.1855 126 124 123
2.80221 -0.356814 1.75745 32 40 52
3.29116 -0.625366 1.76484 182 163 172
2.97189 -1.31063 2.58372 79 79 82
3.51102 -0.670083 1.78508 104 92 99
2.97853 -0.678557 2.13176 98 86 78
3.59217 -0.430242 2.28645 53 52 54
3.81102 -0.707658 2.86546 221 157 90
4.19231 -0.65067 2.6888 36 32 29
3.9302 -0.351147 2.96613 64 69 76
3.50611 -0.680543 3.02205 234 165 77
3.83095 -0.706928 2.44583 156 114 79
3.22902 -1.23044 2.84812 82 81 84
3.27145 -0.971004 2.88351 76 74 73
2.72472 -1.04662 1.98389 27 21 18
3.22958 -0.271275 2.46395 90 88 87
2.93096 -0.708457 2.4859 237 182 121
2.57457 -0.744657 2.12276 225 178 147
2.85117 -0.730597 1.78628 191 140 91
3.06834 -0.250064 2.68516 89 83 82
3.49248 -0.51039 1.70593 111 119 119
3.23067 -0.708638 2.7658 233 168 103
3.20967 -0.684728 2.00411 70 72 79
3.31143 -0.668873 1.84881 131 114 114
3.86985 -0.433036 2.9068 26 22 16
3.78802 -0.709529 2.2662 144 113 92
3.25034 -0.721895 2.66654 140 131 127
4.11141 -0.695522 2.38511 190 160 150
3.20927 -0.250859 2.48436 93 92 90
3.55008 -0.690077 2.36488 23 18 17
3.37017 -0.5495 1.66505 189 173 187
3.35193 -0.612034 1.82518 124 114 114
2.6174 -0.437601 1.82547 109 110 108
2.68888 -0.390166 1.7293 62 65 68
3.93128 -0.671689 2.08555 159 121 98
2.68576 -0.892962 1.92622 39 28 23
3.07307 -0.704217 2.2638 106 88 77
3.28024 -0.387761 2.39369 77 70 69
3.36969 -0.229373 2.42338 78 79 81
3.14688 -0.565193 1.61025 58 58 69
3.73302 -0.721887 2.64465 218 147 64
2.66774 -0.771914 2.28673 153 120 94
3.51112 -0.710901 2.48516 73 60 56
3.50885 -0.471776 1.68643 179 182 187
2.75057 -0.697414 2.20612 236 241 249
3.59089 -0.725282 2.24278 140 103 74
3.73104 -0.750969 3.08377 61 49 40
3.26543 -0.518285 2.239 8 9 14
3.95268 -0.611799 2.86661 44 36 33
4.02887 -0.98968 2.86454 38 29 25
3.25785 -0.95133 2.87907 65 63 64
2.95118 -1.29138 2.54528 68 67 70
3.17102 -0.510644 2.18614 18 15 20
4.05104 -0.749664 2.74602 38 24 11
3.46849 -0.630272 1.6877 106 108 103
4.06962 -0.831996 2.84287 45 41 41
3.98855 -0.51058 3.0022 46 47 51
4.07142 -0.791252 2.84978 37 35 33
2.64529 -0.492733 1.85835 65 60 58
2.77825 -1.22615 2.47231 83 81 82
2.73211 -0.530585 1.74709 37 39 43
3.25128 -0.625905 1.78451 180 161 171
3.23059 -0.630924 1.86735 120 100 104
2.99959 -0.631897 2.63733 167 115 81
2.96971 -1.03017 2.56746 57 55 57
3.37679 -0.332548 2.39134 36 36 45
3.1719 -0.738959 1.92366 189 133 93
3.88981 -0.670421 2.98308 39 30 26
2.81887 -0.958094 2.47986 142 134 128
4.11931 -0.445336 2.75533 49 49 56
3.69136 -0.670274 2.18843 141 101 70
3.50549 -0.510734 1.98392 29 32 43
3.97032 -0.610351 2.88594 35 26 18
3.42764 -0.659304 2.58415 107 72 52
3.35159 -0.652798 1.96574 105 98 100
3.13272 -0.726424 1.70657 130 89 68
3.63154 -0.510819 2.22951 55 52 52
3.58345 -0.772744 3.10922 49 42 41
3.26938 -0.550945 2.50728 77 61 58
2.73046 -0.695476 1.97463 213 154 96
3.50975 -0.669073 2.60611 44 33 29
2.80857 -0.551742 1.68374 60 61 63
3.59184 -0.451472 1.82562 157 163 180
2.68988 -0.350617 1.82537 57 63 72
3.13166 -0.696277 1.8262 203 142 91
2.72939 -0.45029 1.76438 24 27 33
2.93052 -0.704429 2.28515 236 181 126
3.5864 -0.673404 1.92236 42 27 32
4.07118 -0.695037 2.4053 205 156 119
3.47084 -0.694169 2.94603 232 166 96
3.65066 -0.490319 1.76455 113 109 118
4.17124 -0.724148 2.42543 203 150 107
4.11058 -0.692113 2.30666 192 185 194
3.85126 -0.671408 2.12412 139 109 90
3.6545 -0.310574 1.86684 130 126 124
3.53124 -0.19783 1.98762 220 223 223
3.93396 -0.872798 2.90867 40 33 29
3.97259 -0.674788 2.30445 127 123 129
3.40644 -0.854765 2.94127 24 14 11
3.09062 -0.271085 2.62518 103 98 93
3.20756 -0.727323 1.44551 53 53 61
3.67034 -0.231641 2.10643 123 120 118
3.02846 -0.709092 2.18685 80 76 77
2.93034 -0.770806 2.52882 131 109 92
3.14952 -1.19032 2.72754 83 80 83
3.31717 -0.236915 2.53074 89 90 90
3.51047 -0.176779 2.06187 224 226 223
3.20064 -0.714421 2.45552 144 121 113
3.52837 -0.391113 2.4218 34 32 38
4.13089 -0.728493 2.26733 197 153 124
3.37613 -0.972106 2.92078 29 22 25
3.17412 -0.230068 2.48925 137 136 135
3.43042 -0.411234 2.04507 30 33 43
3.47044 -0.692721 2.6248 202 140 80
3.49133 -0.410744 2.40582 40 39 41
2.82936 -0.620321 1.6072 31 34 37
3.62976 -0.451576 1.74366 154 145 148
4.01655 -0.655186 2.76833 153 124 97
3.21225 -0.551049 2.206 18 16 21
2.59478 -0.931565 2.24482 65 58 53
3.57968 -0.368577 2.25003 56 55 57
4.15095 -0.72681 2.46547 206 152 106
2.81167 -0.970597 2.42687 94 90 89
3.2899 -0.652369 2.12517 114 94 67
2.81218 -0.710104 2.46398 168 135 100
3.52808 -0.609514 2.4215 23 18 20
3.45058 -0.712434 2.38652 61 52 49
3.20985 -0.631705 1.76524 202 177 184
3.61002 -0.723605 2.806 226 155 69
3.23181 -0.224028 2.38445 73 80 87
3.30576 -0.249013 2.12049 64 67 70
3.50985 -0.212597 2.04403 212 217 219
3.17329 -0.57461 1.84527 227 206 214
3.1509 -0.713427 2.12422 59 58 66
3.09992 -0.995028 2.69569 56 52 52
3.51186 -0.251553 2.34634 64 66 68
3.66189 -0.679185 3.15684 72 60 55
2.79441 -1.13305 2.42506 106 102 101
2.77034 -0.697603 2.00577 222 165 105
3.45077 -0.690697 2.40557 52 43 41
3.5496 -0.351026 2.38436 42 41 47
3.17058 -0.648669 2.28644 100 94 83
3.51298 -0.307227 2.20813 99 96 96
3.57047 -0.251382 2.30429 72 74 77
3.7252 -0.316915 2.07553 63 66 69
3.76615 -0.410954 1.8849 114 108 104
3.30996 -0.496462 1.7002 217 197 207
3.53278 -0.647406 1.8235 134 109 105
3.35089 -0.685177 1.86538 155 143 148
3.5892 -0.427437 1.92059 84 85 90
3.09161 -0.930394 2.64925 66 58 57
3.51343 -0.611595 1.7254 108 111 109
3.27068 -0.725793 2.50598 221 160 114
3.14799 -1.16933 2.68978 67 62 65
3.21274 -1.17104 2.80208 67 66 70
3.78899 -0.210846 1.92739 169 169 166
3.5691 -0.214747 2.164 118 116 112
3.48233 -0.510409 2.04743 25 27 39
3.82909 -0.649914 3.04157 54 43 37
2.82744 -0.612977 1.70104 60 58 56
2.91463 -1.11009 2.56156 41 42 45
2.97234 -0.692032 2.54471 200 154 113
3.1167 -0.869397 2.72472 79 69 67
3.87006 -0.695602 2.40468 108 85 67
3.37095 -0.211908 2.38453 124 124 124
3.56395 -0.17622 2.03662 238 241 242
3.43146 -0.509682 2.0673 29 28 36
3.25147 -0.249904 2.26149 89 97 104
3.47629 -0.508905 1.93527 120 123 126
2.6276 -0.632711 1.91804 78 65 55
3.45592 -0.41667 1.62304 146 135 169
2.62787 -0.768811 1.96264 100 82 71
3.5302 -0.671518 2.46546 33 27 29
3.65153 -0.368934 1.90626 97 100 103
2.51774 -0.490977 1.87123 38 31 31
3.25293 -0.890897 2.84295 56 52 54
3.32519 -0.570048 2.14203 14 13 19
4.13144 -0.369625 2.80361 69 74 77
3.97088 -0.728997 2.40527 207 149 100
3.14798 -0.291441 2.56294 92 87 83
3.54645 -0.64387 1.84892 98 87 84
3.67026 -0.693189 2.24409 99 70 49
2.63701 -0.385911 1.74348 72 63 58
3.0697 -0.714544 2.24629 139 105 80
3.94952 -0.589817 2.9242 31 24 19
3.74857 -0.654645 2.56437 59 41 31
3.68925 -0.670094 3.10428 79 62 48
3.95253 -0.752117 2.8252 38 23 14
3.95232 -0.591432 2.88774 39 31 23
3.33982 -0.650533 2.35516 107 86 77
3.25286 -0.553371 1.66449 205 182 192
2.65198 -0.531401 1.74502 55 57 60
3.21067 -0.570825 2.50594 113 95 85
2.63674 -0.891376 1.82561 27 22 23
3.08539 -0.528505 2.46673 145 120 103
3.81163 -0.732228 2.60709 210 144 82
3.35104 -0.254233 2.42527 69 69 71
3.92903 -0.707739 2.0446 177 137 108
3.07347 -0.950689 2.64722 78 68 68
3.2465 -0.873192 2.81077 72 64 62
3.67217 -0.490813 1.88524 74 76 79
2.789 -0.531743 1.62463 57 59 65
2.81101 -0.729323 1.98567 226 167 111
3.47424 -0.653412 1.8053 129 116 115
3.43235 -0.610072 2.48786 21 14 14
3.23152 -0.224052 2.40632 123 128 133
3.30244 -1.17072 2.87198 73 71 73
2.88364 -1.04996 2.44899 45 43 44
2.9506 -0.69007 2.42569 218 232 243
3.07234 -0.748725 1.78588 178 123 79
3.40956 -0.264388 2.12902 203 206 207
3.61143 -0.679226 2.70686 214 153 95
3.67096 -0.672202 2.18689 139 105 77
3.35315 -0.289646 2.52853 34 35 40
2.60774 -0.837485 2.20435 100 95 90
2.81457 -1.27192 2.48437 72 71 72
2.6917 -0.432568 1.7064 77 81 85
2.65106 -0.951428 1.90507 29 24 22
3.23705 -1.23483 2.88002 84 85 89
3.29081 -1.29092 2.88593 77 75 78
3.59162 -0.690838 2.48524 46 38 39
3.51189 -0.61079 1.84673 125 114 100
3.41088 -0.215891 2.22467 165 166 165
3.34912 -0.891658 2.90691 29 20 20
2.8573 -0.752129 1.67139 46 38 37
2.69366 -0.510006 1.76672 34 33 37
3.37469 -0.650298 1.77124 175 155 150
3.99198 -0.491462 2.94825 53 53 54
3.70954 -0.23078 1.94761 156 157 154
3.39171 -0.45039 2.52664 20 17 17
3.30036 -0.434215 2.13495 25 25 32
2.58977 -0.630402 1.92734 38 32 28
3.20887 -0.970132 2.82764 64 63 66
3.92775 -1.01261 2.96028 55 48 46
3.09368 -0.636301 2.32944 149 122 104
3.11577 -1.08751 2.70094 65 60 61
3.14698 -0.691292 1.64598 138 102 90
2.76055 -0.398286 1.6655 36 41 54
3.02739 -0.791359 2.64806 65 58 56
3.55253 -0.413928 1.70412 167 169 169
3.59353 -0.67965 2.9023 229 161 74
2.84961 -0.745373 2.34557 206 178 149
3.38863 -0.573931 1.6248 189 174 186
2.73073 -0.712506 2.06589 229 193 168
3.54552 -0.384096 1.83967 139 153 160
3.3674 -0.633171 2.12663 39 33 32
3.61095 -0.70489 3.10551 241 180 105
3.11057 -1.09092 2.64631 61 56 57
3.4904 -0.686469 2.44622 25 15 13
3.22946 -0.667504 1.86454 161 140 145
2.8509 -0.707264 2.4455 241 184 118
3.68817 -0.331005 2.25976 61 63 71
4.05629 -0.741995 2.3417 203 147 102
3.63262 -0.431421 2.22711 63 63 64
3.08601 -0.750484 2.66519 96 85 79
2.61235 -0.528908 1.78768 53 52 54
3.21076 -0.411174 2.16526 26 26 33
3.35213 -0.216086 2.16582 164 165 163
3.44629 -0.371449 2.08632 41 44 47
3.44938 -0.706065 1.88991 121 107 113
2.95087 -0.704974 2.24552 233 176 119
3.3739 -0.791173 2.98078 51 39 36
2.85005 -0.722032 2.0632 227 167 113
2.83053 -0.491123 1.62516 38 44 49
3.17082 -0.650687 1.90394 163 140 145
3.82951 -0.668799 2.4244 52 46 43
3.26803 -0.248286 2.14197 64 66 71
3.63285 -0.469707 2.22765 58 57 58
3.50979 -0.569561 1.62783 126 122 135
4.07181 -0.691424 2.74557 39 28 15
3.53277 -0.414244 1.70551 127 129 132
3.65112 -0.696033 3.00591 238 177 108
4.33268 -0.650801 2.4057 136 136 136
3.45152 -0.269199 2.24514 102 102 102
3.25319 -1.3109 2.8838 87 86 89
3.30972 -1.1307 2.88614 63 61 63
3.47097 -0.693132 2.68575 209 145 83
3.97122 -0.708102 2.32541 192 158 139
3.59096 -0.232473 2.1262 126 125 123
3.91102 -0.510817 2.94626 61 56 52
2.79126 -0.700838 1.94862 226 173 107
4.21008 -0.70852 2.30713 198 165 145
3.07504 -0.53192 2.69805 156 131 117
3.52962 -0.610146 1.84551 143 133 114
3.46919 -0.489791 1.70552 120 121 127
3.13056 -0.912485 2.70729 79 70 68
3.491 -0.649813 1.86568 139 122 126
3.35102 -1.11181 2.90203 35 32 37
2.85166 -1.01109 2.48503 62 61 64
2.64248 -0.83326 2.28679 29 22 23
3.41595 -0.271142 2.01141 115 121 124
3.70661 -0.529925 2.26323 38 32 36
3.08779 -0.709507 2.06266 69 65 66
3.91213 -0.652196 2.90703 36 25 17
3.48963 -0.451639 1.62649 138 131 155
3.2107 -0.709284 2.78557 236 171 104
3.06837 -0.431104 2.68158 111 102 101
3.23169 -0.431271 2.42874 100 89 86
2.71745 -0.669672 1.77345 24 17 18
3.11103 -0.640398 2.15891 81 77 75
3.64723 -0.638907 2.48662 20 16 17
4.05819 -0.730936 2.85478 29 23 23
3.47149 -0.231439 2.06591 191 195 198
3.37011 -0.228628 2.38577 90 92 92
3.51166 -0.289313 2.24887 88 87 87
3.4097 -0.679449 2.87917 235 163 72
2.80778 -0.512506 1.68251 75 73 71
3.25155 -0.695545 2.52661 185 137 96
2.8292 -0.609869 1.64794 43 42 45
3.35055 -0.370697 2.56521 20 20 23
3.64928 -0.510227 1.74459 89 75 101
3.24276 -0.219245 2.47839 215 214 216
3.59277 -0.669869 1.90434 34 23 28
3.40817 -0.332197 2.12359 40 44 47
3.75032 -0.430647 1.89729 124 109 90
4.39244 -0.692797 2.44564 135 132 132
3.29086 -0.609727 1.54483 80 82 98
2.88872 -0.745054 1.6834 51 45 40
2.71179 -0.929146 1.80662 27 22 19
3.15047 -0.708843 2.64569 224 164 105
3.55078 -0.531165 1.62837 112 113 129
2.77077 -0.710143 2.34554 233 193 157
2.88282 -0.347542 1.66143 72 77 84
3.20609 -0.709241 1.76776 137 103 104
2.78746 -0.410261 1.7437 54 57 66
2.9917 -0.696018 1.70331 211 162 113
2.87251 -1.23099 2.52488 56 56 59
3.46641 -0.369682 2.0202 42 47 54
2.65143 -0.69835 2.22611 218 195 198
3.09286 -0.711691 1.51111 141 127 112
4.03079 -0.709363 2.28801 188 168 170
3.94271 -0.909134 2.93962 53 47 43
3.59073 -0.691849 2.94589 231 169 104
3.57168 -0.451527 2.32628 40 40 42
3.26746 -0.61114 1.55986 97 96 113
3.43078 -0.350575 2.04485 43 47 54
2.79233 -0.550401 1.68806 60 62 63
3.49139 -0.692179 2.66513 205 142 81
4.23195 -0.689654 2.28501 196 185 181
2.96665 -0.702734 2.30414 216 167 121
3.45118 -0.351309 2.02476 47 51 58
3.72971 -0.671559 2.50423 53 45 42
3.91043 -0.731142 2.96505 41 32 28
3.51091 -0.710942 2.56407 65 54 52
3.17953 -0.717984 1.41349 211 162 117
3.73767 -0.472921 1.88332 83 83 83
3.7106 -0.490425 2.24572 44 42 49
2.56812 -0.914968 2.22352 89 86 81
2.67011 -0.550916 1.72559 54 54 58
3.06867 -1.17048 2.67762 115 114 114
3.79077 -0.669774 2.52675 94 67 50
2.8918 -1.23122 2.52466 64 64 68
3.66986 -0.721891 2.66583 220 153 92
3.96705 -0.791449 2.84065 33 21 15
3.63231 -0.728882 2.24419 108 76 55
2.56968 -0.790114 2.22629 109 106 104
3.66996 -0.390171 1.80472 117 141 128
3.43112 -0.249312 2.3447 67 68 69
3.65055 -0.705061 2.96563 238 176 104
3.27554 -0.570187 2.41268 95 76 67
2.73028 -0.490061 1.76539 30 31 34
2.98936 -0.831008 2.56626 41 37 37
3.91124 -0.708087 2.32603 172 128 92
3.69616 -0.849453 3.10345 61 52 46
3.49219 -0.550909 2.42725 25 17 17
3.1603 -0.536541 2.19431 20 17 22
3.31025 -0.510562 1.74681 193 176 188
3.64703 -0.503006 1.73513 85 77 109
3.79132 -0.691183 3.0043 55 43 34
3.15358 -0.650785 1.82598 161 127 125
3.31548 -0.628124 2.47957 126 105 96
3.26737 -0.548819 2.10151 14 13 18
3.50777 -0.682409 1.74593 175 159 165
2.67365 -0.4515 1.68585 78 80 83
4.09086 -0.691088 2.28484 201 195 197
2.67303 -1.1105 1.92452 17 17 17
3.04962 -0.250522 2.68425 90 88 86
4.04913 -0.78761 2.74635 36 25 20
3.47531 -0.443257 1.93454 149 155 162
2.65159 -0.531068 1.82617 38 40 42
3.83075 -0.722192 2.44848 202 140 88
2.94137 -0.591554 1.58228 36 38 41
2.91081 -0.971455 2.56304 53 51 55
3.82929 -0.740218 2.26847 82 71 66
3.0778 -0.370224 2.61196 108 100 94
3.78655 -0.371235 2.08491 110 104 100
3.25056 -0.726179 2.52456 225 162 105
2.9206 -0.940499 2.57585 53 50 55
3.07148 -0.756724 2.64954 85 79 74
2.84887 -0.73168 2.34535 233 190 146
2.87324 -1.31043 2.50329 69 70 74
2.7527 -0.351203 1.68676 64 72 79
3.08966 -0.370901 2.62477 109 100 94
4.01197 -0.767161 2.78807 34 19 9
3.4341 -0.677273 2.08948 74 65 51
3.92647 -0.750459 2.95935 39 30 27
3.41034 -0.450647 2.04623 20 24 34
3.38867 -0.291182 2.1034 53 57 62
2.87345 -0.830557 2.50291 61 60 61
3.07077 -0.696379 1.58702 194 149 107
4.09134 -0.611016 2.76512 38 32 24
3.11259 -1.20967 2.63067 64 60 61
4.16975 -0.708885 2.26673 180 169 182
2.99028 -0.686661 2.44474 179 171 166
3.18926 -0.673004 2.70498 213 158 107
3.17252 -0.572911 1.82558 224 200 210
2.67113 -1.0516 1.90756 5 6 6
2.72638 -1.02924 1.79098 25 23 21
3.06841 -0.290618 2.66355 95 88 84
3.51188 -0.210331 2.14381 160 160 157
3.93114 -0.697997 2.70574 214 158 100
3.27106 -0.6711 1.86589 125 109 114
3.15364 -0.770647 2.78279 100 89 85
3.25012 -0.250775 2.42484 103 103 101
3.53091 -0.531313 2.40541 27 19 21
3.54593 -0.217524 1.8847 221 227 231
3.34971 -0.677319 2.48736 149 110 88
2.77262 -0.369436 1.70615 60 66 74
2.86841 -0.811149 2.48802 59 56 57
2.75035 -0.729242 2.28423 225 186 156
3.49104 -0.691792 2.70551 211 147 85
3.37002 -0.650204 2.58571 173 119 76
3.53519 -0.676508 2.31382 28 20 19
