ply
format ascii 1.0
comment Created by Open3D
element vertex 1182
property double x
property double y
property double z
property uchar red
property uchar green
property uchar blue
end_header
-0.864797 -0.774091 -0.295583 219 223 234
-0.852333 -0.790878 -0.291066 214 218 227
-0.928497 -0.689595 -0.336655 223 229 239
-0.889306 -0.710556 -0.314107 220 226 236
-1.16944 -0.989262 0.0666593 79 69 74
-0.868326 -0.750853 -0.292053 221 226 237
-0.852033 -0.810193 -0.276664 170 168 176
-0.847791 -0.829871 -0.275868 132 132 139
-0.847109 -0.849812 -0.274648 128 122 128
-0.930457 -0.674479 -0.334848 226 231 241
-0.911593 -0.692193 -0.314242 218 222 232
-0.889384 -0.710932 -0.294972 208 213 224
-0.888832 -0.727865 -0.292278 206 210 222
-0.842227 -0.847809 -0.26162 104 103 109
-0.966944 -0.647657 -0.35452 186 193 199
-0.949569 -0.671426 -0.334638 223 229 239
-0.871987 -0.731669 -0.275306 214 219 230
-0.851058 -0.771594 -0.275674 222 227 237
-0.848405 -0.827955 -0.258563 121 120 124
-0.931294 -0.674672 -0.314823 218 224 232
-0.910569 -0.690865 -0.293359 189 193 201
-0.887913 -0.710173 -0.274197 177 181 192
-0.784426 -0.809665 -0.193799 122 91 96
-0.7718 -0.81078 -0.193821 125 96 99
-0.783264 -0.8305 -0.194498 122 91 94
-0.9292 -0.674353 -0.293483 153 155 160
-0.889689 -0.688253 -0.273709 175 178 185
-0.771239 -0.770578 -0.174646 131 107 114
-0.771079 -0.790694 -0.173923 114 86 90
-0.770447 -0.811664 -0.175113 110 79 82
-0.970649 -0.604369 -0.0741346 181 167 169
-0.985597 -0.643751 -0.34552 141 146 159
-0.789592 -0.730759 -0.175011 180 150 157
-1.20492 -0.952956 0.0809629 51 51 60
-0.769109 -0.79033 -0.155174 109 83 89
-0.968546 -0.652068 -0.312349 190 195 202
-0.868799 -0.671188 -0.235368 102 100 106
-0.728508 -1.23341 -0.194799 162 144 147
-0.772593 -0.751214 -0.155168 135 110 119
-0.770413 -0.770584 -0.154676 121 97 105
-0.908882 -0.648435 -0.274405 161 164 167
-0.808379 -0.711113 -0.194044 202 173 180
-0.791584 -0.711863 -0.17349 186 155 162
-1.0281 -0.656142 -0.347792 173 171 163
-1.00527 -0.651921 -0.331739 178 176 172
-0.97005 -0.650997 -0.294883 154 153 153
-0.908996 -0.650206 -0.255863 126 126 129
-0.792675 -0.692004 -0.173144 171 145 153
-0.790889 -0.711259 -0.154677 158 129 137
-0.76965 -0.789058 -0.134742 101 76 82
-1.00829 -0.648857 -0.314891 158 156 149
-0.989386 -0.648656 -0.295673 140 134 133
-0.850319 -0.633469 -0.21518 129 129 133
-0.82896 -0.650784 -0.173915 181 171 175
-0.947902 -0.63079 -0.255025 113 110 111
-0.84988 -0.634616 -0.193846 116 114 119
-0.789017 -0.750014 -0.134687 158 135 141
-1.00972 -0.634963 -0.292542 174 168 166
-0.891963 -0.616746 -0.214556 105 101 104
-0.849152 -0.632546 -0.172952 174 169 173
-0.773749 -0.771477 -0.116163 122 101 108
-0.9507 -0.611013 -0.253853 175 168 157
-0.8909 -0.615533 -0.192995 123 126 131
-0.831177 -0.63507 -0.153593 208 188 189
-0.789881 -0.750972 -0.114845 140 119 125
-1.02573 -0.633384 -0.294369 171 171 170
-0.849193 -0.63132 -0.153681 205 191 192
-0.828874 -0.650123 -0.134301 196 161 166
-0.812604 -0.652595 -0.134823 185 158 165
-0.792222 -0.710791 -0.114423 145 119 126
-1.32068 -0.996043 0.0545051 69 52 58
-1.04641 -0.635617 -0.292112 166 172 176
-0.989509 -0.631005 -0.254292 122 121 122
-1.02923 -0.629821 -0.2728 153 154 153
-0.810084 -0.671211 -0.11455 187 154 161
-0.823426 -1.01143 -0.0882176 122 99 105
-0.910222 -0.612246 -0.173826 147 157 160
-0.85029 -0.612263 -0.133733 166 169 171
-0.828546 -0.650515 -0.114426 200 167 174
-0.81013 -0.710901 -0.0943756 176 148 155
-0.81085 -0.69145 -0.0949698 182 154 160
-0.928696 -0.589892 -0.173882 131 137 136
-0.86885 -0.595653 -0.153519 133 137 141
-0.84871 -0.630787 -0.114707 200 179 185
-0.827406 -0.669993 -0.113682 212 182 188
-0.827556 -0.670736 -0.0940541 199 168 174
-0.810393 -0.671878 -0.0943119 183 153 160
-0.807995 -0.750717 -0.0941217 145 122 127
-0.94919 -0.593934 -0.192986 142 151 138
-0.909613 -0.591118 -0.15239 136 142 146
-0.829277 -0.650729 -0.0945055 201 173 179
-1.19014 -0.65078 -0.114912 170 146 138
-1.10625 -0.649666 -0.272691 151 160 158
-0.971011 -0.613756 -0.193898 131 139 141
-0.930095 -0.58905 -0.154915 144 152 154
-0.831664 -0.632531 -0.0946094 196 170 177
-0.810666 -0.710938 -0.0753302 162 133 139
-1.00979 -0.610966 -0.213518 158 168 159
-0.888636 -0.60922 -0.114356 211 194 199
-0.849082 -0.630453 -0.0945369 201 176 182
-0.869832 -0.611776 -0.0940885 208 181 188
-0.848658 -0.650162 -0.0935693 198 168 174
-0.809337 -0.770913 -0.0540293 156 130 135
-1.35083 -1.09404 0.123979 96 99 111
-1.08914 -0.649931 -0.255907 166 174 175
-0.968211 -0.590669 -0.155238 151 160 160
-0.928304 -0.591945 -0.134423 158 164 167
-0.908434 -0.596347 -0.113627 193 182 185
-0.849007 -0.650862 -0.0740101 163 135 142
-0.827296 -0.731058 -0.0736213 178 149 155
-0.810637 -0.751309 -0.0545418 160 133 139
-1.0074 -0.613605 -0.1737 168 180 180
-0.907908 -0.608981 -0.115557 216 194 199
-0.888335 -0.608508 -0.093881 212 183 188
-0.849004 -0.63102 -0.0745455 179 153 159
-0.848149 -0.670004 -0.073098 160 130 137
-0.828987 -0.730825 -0.0543315 164 137 144
-1.41098 -1.25206 0.224551 74 74 76
-0.828276 -0.750367 -0.0534676 162 134 140
-1.0292 -0.614256 -0.194051 150 158 159
-1.01001 -0.591029 -0.17461 165 170 173
-0.989544 -0.590044 -0.156726 144 148 148
-0.928094 -0.594966 -0.113508 187 180 183
-1.45023 -1.11459 0.161709 103 102 104
-0.869662 -0.611247 -0.0750522 190 161 167
-0.847368 -0.68893 -0.0724659 166 133 140
-0.848839 -0.690582 -0.0540519 156 131 138
-0.82943 -0.691095 -0.0542351 152 123 130
-1.02907 -0.611029 -0.176388 157 164 164
-0.925859 -0.606836 -0.115139 201 184 187
-0.848964 -0.670872 -0.0540865 156 131 138
-0.846714 -0.709941 -0.0525279 156 131 137
-0.810724 -0.751379 -0.0351685 139 112 118
-1.03167 -0.593856 -0.171067 163 162 159
-1.00854 -0.589473 -0.155413 139 137 134
-0.888541 -0.610105 -0.0738733 207 175 179
-0.845741 -0.728758 -0.0510382 153 128 134
-0.829721 -0.750675 -0.034906 137 110 116
-1.05113 -0.613837 -0.173474 158 157 156
-0.752987 -1.2306 -0.213836 154 139 143
-0.969861 -0.593512 -0.114888 159 160 161
-0.929027 -0.594892 -0.0935211 199 181 184
-0.92916 -0.609274 -0.0940046 203 171 175
-0.889093 -0.592667 -0.0743973 207 178 183
-0.870303 -0.631167 -0.0545673 185 156 160
-0.86595 -0.669202 -0.0524967 172 146 152
-1.40596 -1.07217 0.126302 65 64 69
-0.828547 -0.73098 -0.0341819 140 114 121
-1.01083 -0.588312 -0.135766 161 151 147
-0.910288 -0.595476 -0.0740486 201 171 175
-0.887599 -0.629186 -0.0531885 202 167 172
-0.862537 -0.687738 -0.0518783 163 138 144
-0.849613 -0.711595 -0.0342429 165 138 144
-0.846453 -0.749636 -0.0317576 133 108 114
-1.04907 -0.61274 -0.15543 161 170 169
-0.889361 -0.611886 -0.054602 210 172 177
-0.865887 -0.689868 -0.032962 181 149 154
-0.862784 -0.709208 -0.0307392 169 139 145
-1.06849 -0.611004 -0.153295 149 151 149
-1.02691 -0.590277 -0.130732 157 144 139
-1.00712 -0.589859 -0.113208 151 155 154
-0.927876 -0.608778 -0.0729738 208 170 174
-0.869064 -0.670201 -0.0338646 195 161 165
-0.988251 -0.595527 -0.0954039 142 147 148
-0.948215 -0.59526 -0.0732642 201 176 178
-0.888685 -0.63023 -0.0343808 203 164 168
-0.849438 -0.73064 -0.0143771 149 123 129
-1.04897 -0.614358 -0.134344 164 168 168
-1.0266 -0.59083 -0.113767 140 132 129
-0.969254 -0.59592 -0.0749921 188 173 175
-0.929735 -0.594334 -0.0549104 205 173 177
-0.882509 -0.665441 -0.0286476 187 150 155
-0.867546 -0.710205 -0.014088 193 158 164
-0.866337 -0.730183 -0.0141918 192 161 166
-1.06944 -0.611065 -0.133986 158 157 155
-1.00814 -0.592355 -0.0944953 146 149 149
-0.906882 -0.62856 -0.0322741 208 171 175
-0.88873 -0.67016 -0.0143099 190 150 154
-0.86893 -0.690507 -0.0144543 193 155 160
-1.08997 -0.613829 -0.133832 154 145 140
-1.04619 -0.595867 -0.114583 164 147 140
-0.902407 -0.644057 -0.0293897 197 158 162
-0.88625 -0.689081 -0.0111997 181 143 148
-0.867496 -0.750892 -0.0118797 141 116 121
-1.0479 -1.18992 0.100644 79 78 82
-0.96946 -0.60669 -0.0537493 186 158 161
-0.889426 -0.650778 -0.0151031 199 160 163
-1.10913 -0.616256 -0.131236 171 158 151
-0.989118 -0.60742 -0.0541852 175 160 161
-0.948713 -0.608116 -0.0331039 199 168 171
-0.927363 -0.626039 -0.0306428 213 182 185
-0.908759 -0.630097 -0.0148617 211 175 179
-1.07042 -0.600055 -0.100357 130 130 129
-0.98867 -0.595722 -0.0541578 193 172 174
-0.887818 -0.73055 0.00798335 171 141 145
-1.04958 -0.594781 -0.0756675 165 153 146
-1.00775 -0.598934 -0.0565411 171 165 166
-0.909215 -0.670595 0.00456263 201 161 165
-0.887913 -0.751465 0.0068021 124 102 107
-1.03129 -0.597935 -0.0583778 144 137 133
-1.00723 -0.60828 -0.0527438 172 153 154
-0.925964 -0.647709 -0.00818681 202 161 163
-0.908386 -0.649947 0.00689604 199 158 161
-0.835262 -0.842324 0.0396077 131 106 112
-0.888862 -0.73077 0.024974 148 121 125
-0.889773 -0.751575 0.0237942 111 91 95
-0.968467 -0.610225 -0.0136909 196 165 167
-0.889128 -0.710564 0.0258818 174 142 146
-1.02947 -0.609248 -0.0557785 165 151 151
-0.929182 -0.630401 0.00591574 198 158 161
-0.908652 -0.710516 0.0277096 182 147 151
-1.11091 -0.613651 -0.0743878 154 133 123
-1.09114 -0.613417 -0.073943 160 133 121
-0.908702 -0.730331 0.0252845 160 131 135
-1.04321 -0.608477 -0.0402651 153 139 135
-1.00587 -0.612739 -0.0156125 172 145 145
-0.948253 -0.649586 0.00778722 199 160 163
-0.927968 -0.689822 0.0276194 176 139 143
-0.909645 -0.751283 0.024707 117 95 100
-0.874393 -0.727386 0.0583929 75 59 65
-0.892941 -0.749636 0.0396757 90 72 77
-1.05147 -0.630544 -0.0334957 155 133 134
-0.90952 -0.729929 0.0443791 144 116 122
-0.988649 -0.625264 -0.0113989 189 156 158
-0.988433 -0.630471 0.00653739 188 156 160
-0.948797 -0.670561 0.026427 170 134 138
-0.92894 -0.710722 0.0460061 164 133 137
-0.909721 -0.71074 0.0460236 147 119 123
-0.929144 -0.691349 0.0447031 161 127 130
-0.814205 -1.00831 -0.0378894 123 102 107
-0.928319 -0.729725 0.0469131 138 113 117
-1.10858 -0.624802 -0.0338142 127 100 94
-1.07023 -0.63758 -0.0187782 126 110 106
-0.969342 -0.650591 0.0252492 174 140 144
-1.13038 -0.630232 -0.0525134 145 116 109
-1.02643 -0.632453 0.00486527 156 140 143
-0.92892 -0.748161 0.0634197 85 67 72
-1.06887 -0.648896 -0.0123708 136 118 119
-0.930848 -0.730933 0.0631013 118 96 101
-1.10772 -0.632287 -0.0134369 124 97 90
-1.04996 -0.650502 0.00645113 143 130 132
-0.988646 -0.650872 0.0248356 172 141 144
-1.04715 -0.655172 0.0245518 152 133 135
-0.968927 -0.691561 0.0647141 154 122 126
-0.950122 -0.692727 0.0628087 163 130 134
-1.00888 -0.653171 0.0449587 163 138 141
-1.19954 -0.658357 -0.040081 92 73 74
-0.94902 -0.74726 0.0843165 94 76 82
-1.12325 -0.638744 0.0010123 104 78 71
-0.992746 -0.652074 0.0644184 167 136 140
-0.970238 -0.711944 0.0820094 157 127 131
-1.07023 -0.655169 0.0430222 123 120 121
-1.02916 -0.671092 0.04491 168 141 144
-1.0092 -0.671564 0.0633267 172 142 144
-0.969538 -0.691604 0.0852009 159 126 129
-0.96928 -0.728486 0.0844466 153 127 131
-0.989942 -0.673384 0.0830268 172 139 142
-0.989043 -0.693104 0.0822641 159 127 131
-0.949057 -0.749806 0.105492 90 76 83
-1.08591 -0.651275 0.0437724 106 110 110
-0.970967 -0.731651 0.105372 145 122 128
-0.967769 -0.711601 0.106232 160 128 132
-1.08031 -0.65962 0.0556414 141 140 144
-0.989021 -0.711276 0.10535 142 112 117
-1.08478 -0.673164 0.0625846 137 124 128
-0.989112 -0.688254 0.107981 169 135 138
-1.12414 -0.694419 0.0429896 152 141 142
-0.970421 -0.749475 0.124208 102 97 104
-1.08831 -0.692261 0.0653148 154 134 136
-1.06678 -0.67441 0.0801084 133 122 125
-1.02859 -0.690081 0.108201 156 126 128
-1.08497 -0.691964 0.0819325 150 124 126
-1.06832 -0.693482 0.0828155 164 138 140
-1.04561 -0.688687 0.106942 139 117 120
-0.990184 -0.747535 0.127578 127 112 117
-1.02892 -0.712912 0.102132 170 135 138
-1.06878 -0.712838 0.101654 157 133 134
-1.05014 -0.712345 0.102767 164 138 139
-1.04722 -0.71331 0.124889 145 118 120
-0.986751 -0.749101 0.145423 63 49 54
-1.06 -0.71509 0.118302 147 116 118
-1.01118 -0.730754 0.145509 155 132 136
-1.06762 -0.732936 0.118458 136 119 118
-0.951559 -1.15207 0.0970603 131 112 117
-1.04395 -0.749215 0.150299 136 111 116
-1.02569 -0.754669 0.157045 107 93 94
-0.838228 -0.716756 -0.286194 234 239 246
-0.890647 -1.21004 0.0249409 110 91 95
-1.4303 -1.21104 0.205903 78 79 81
-1.22817 -0.711008 -0.072366 113 97 95
-1.42991 -1.25065 0.144802 80 90 95
-0.87892 -0.773589 0.0570147 98 80 86
-1.20873 -1.1694 0.0657191 40 41 56
-1.01625 -0.598431 -0.214733 195 206 211
-1.29493 -1.09171 0.149753 71 75 94
-1.24974 -0.972847 0.0436703 93 79 84
-0.94945 -0.91068 0.0281973 110 90 96
-1.10712 -0.789954 0.126626 121 107 110
-1.25078 -1.1511 0.0463742 48 49 71
-1.12757 -0.990089 0.0466268 72 74 84
-1.36725 -1.10933 0.025833 52 50 69
-0.76734 -0.990768 -0.153121 137 110 116
-1.10944 -0.652218 -0.194487 160 166 164
-0.749025 -0.990536 -0.17358 136 116 122
-0.831995 -1.05167 -0.0148047 102 85 89
-0.783161 -1.02935 -0.151623 155 130 135
-0.92713 -1.21142 0.00784218 116 94 98
-1.35651 -1.09952 0.0421468 33 36 50
-1.22807 -1.18989 0.0466896 63 64 79
-0.90404 -0.638079 -0.329819 200 212 211
-0.929728 -1.19001 0.0442907 106 86 90
-1.36995 -1.27094 0.184803 42 41 48
-0.919079 -0.876338 0.0588565 123 101 105
-0.765723 -0.748491 -0.210224 209 199 207
-0.833337 -0.950033 0.0236691 111 91 97
-0.99104 -0.657002 0.0980208 184 155 157
-1.38857 -1.17001 0.185476 102 107 110
-0.99033 -0.73053 0.146012 116 96 101
-1.08945 -0.652122 -0.0571419 165 142 141
-0.746957 -1.21003 -0.173255 158 141 145
-0.868591 -0.731902 0.0448134 89 71 76
-0.830044 -0.78968 -0.289522 215 219 228
-0.826976 -0.792446 -0.275329 190 194 202
-0.812428 -0.851984 -0.274292 140 141 150
-0.852873 -0.690836 -0.292502 226 231 239
-0.830596 -0.730446 -0.275369 232 237 247
-0.810897 -0.750476 -0.252506 225 229 239
-0.810695 -0.792803 -0.252567 161 158 167
-0.809364 -0.831867 -0.253606 133 129 136
-0.810091 -0.851156 -0.253502 135 132 140
-0.807467 -0.871075 -0.255011 141 139 146
-0.907584 -0.651493 -0.334023 209 217 223
-0.873374 -0.649128 -0.314435 229 235 245
-0.84992 -0.991691 0.0594184 128 108 112
-0.871419 -0.671571 -0.293518 224 230 240
-0.815369 -0.73454 -0.253354 231 236 246
-0.808825 -0.771387 -0.233823 168 161 169
-0.803381 -0.831482 -0.238077 122 119 129
-0.80804 -0.749923 -0.234125 217 216 225
-0.906218 -0.634836 -0.313209 205 214 220
-0.90883 -0.649108 -0.3144 219 227 234
-0.869204 -0.670457 -0.274587 206 211 220
-0.81061 -0.731749 -0.23444 229 231 241
-0.789093 -0.771705 -0.213098 167 146 153
-0.785196 -0.810243 -0.215604 136 113 118
-0.799829 -0.821384 -0.224308 99 97 106
-0.784061 -0.850893 -0.215881 138 121 125
-0.784679 -0.869823 -0.217114 118 105 109
-0.768206 -0.890294 -0.193967 139 116 121
-0.808263 -0.750255 -0.214238 182 164 171
-0.752462 -0.851535 -0.174291 112 88 93
-0.752916 -0.890673 -0.174342 134 113 118
-0.928399 -0.650034 -0.3157 212 219 229
-0.888784 -0.651548 -0.273992 193 196 201
-0.887263 -0.669386 -0.275138 187 191 200
-0.870091 -0.672466 -0.253157 147 149 156
-0.867965 -0.688441 -0.254008 154 158 167
-0.772832 -0.771316 -0.192437 148 124 131
-0.790565 -0.731542 -0.193062 194 165 173
-0.74927 -0.831314 -0.154245 112 87 92
-0.948772 -0.609788 -0.0938583 192 162 166
-0.749997 -0.849247 -0.155807 110 87 92
-0.889651 -0.669651 -0.254758 120 120 124
-0.770508 -0.851621 -0.155189 127 100 105
-0.748545 -0.851079 -0.135035 116 92 98
-0.949399 -0.633857 -0.294122 176 177 174
-0.929103 -0.633447 -0.273248 148 149 151
-0.886946 -0.670673 -0.234302 126 119 122
-0.86889 -0.670592 -0.213676 135 128 130
-0.847982 -0.688657 -0.19559 117 104 110
-0.927224 -0.647899 -0.254376 100 99 104
-0.909026 -0.670442 -0.233853 117 113 117
-0.771272 -0.868288 -0.11517 106 82 89
-0.792811 -0.692437 -0.134522 149 121 130
-0.768454 -0.810561 -0.114447 90 68 74
-0.768743 -0.829906 -0.114768 99 77 84
-0.76807 -0.850866 -0.114 99 76 83
-0.772406 -0.751417 -0.114343 128 107 114
-0.791942 -0.673912 -0.133829 149 123 130
-1.03118 -0.66693 -0.293682 117 111 112
-0.943647 -0.664554 -0.23365 114 119 129
-0.864806 -0.665401 -0.175454 209 182 188
-0.793437 -0.692159 -0.115403 136 109 117
-0.770559 -0.791545 -0.0951862 105 84 90
-0.768929 -0.811074 -0.0946533 101 79 86
-0.943573 -0.665219 -0.217581 169 157 158
-0.910852 -0.667476 -0.19789 181 172 176
-0.890496 -0.661733 -0.178874 197 178 183
-1.00976 -0.650362 -0.253301 136 140 143
-0.949653 -0.649766 -0.214218 172 176 179
-0.794355 -0.69184 -0.0953272 148 125 132
-0.791496 -0.710402 -0.0944362 122 102 109
-0.772761 -0.831236 -0.0743301 98 77 84
-0.987823 -0.647457 -0.235481 133 138 142
-1.11048 -0.771559 0.0882434 159 139 141
-0.967376 -0.646158 -0.214305 133 144 149
-0.929274 -0.650512 -0.193659 204 194 192
-0.907308 -0.650042 -0.173158 186 168 166
-1.04014 -0.661145 -0.260601 127 133 138
-1.00945 -0.650452 -0.233814 133 141 145
-0.929707 -0.649901 -0.17707 171 167 169
-0.793826 -0.71192 -0.0746477 143 121 128
-0.789989 -0.751148 -0.0744088 110 91 97
-0.786206 -0.811024 -0.0713361 101 78 85
-1.04757 -0.650071 -0.253043 130 140 135
-1.02751 -0.649737 -0.23162 131 140 143
-0.777568 -0.831459 -0.0610777 95 73 80
-0.811526 -0.671424 -0.075125 167 139 144
-0.792319 -0.79093 -0.0552264 97 77 83
-0.790787 -0.811789 -0.0552368 102 82 89
-0.789491 -0.831072 -0.0535401 94 75 81
-1.04983 -0.650317 -0.235169 129 138 139
-0.968877 -0.643472 -0.174454 110 121 129
-1.08296 -0.66364 -0.250988 101 110 114
-1.0313 -0.650914 -0.215656 138 151 154
-0.832055 -0.633377 -0.0762629 183 157 164
-0.797235 -0.713808 -0.0570848 144 120 127
-0.983773 -0.643554 -0.1712 151 152 158
-0.792977 -0.771409 -0.0362286 120 99 106
-0.793152 -0.810885 -0.0351226 90 74 80
-1.02885 -0.647575 -0.192017 164 162 165
-0.905961 -0.624048 -0.116077 206 183 190
-0.831288 -0.653086 -0.0561618 155 124 130
-0.830349 -0.671603 -0.0551898 151 120 126
-0.796315 -0.732197 -0.038209 140 115 122
-1.0882 -0.650073 -0.212504 160 171 172
-1.06796 -0.649491 -0.214786 157 167 168
-1.04986 -0.648355 -0.194531 172 174 175
-0.960756 -0.64696 -0.137874 201 173 176
-0.814959 -0.692462 -0.0369826 142 115 122
-0.794657 -0.792081 -0.0175448 124 102 108
-1.06874 -0.648361 -0.19396 172 177 177
-0.832336 -0.672385 -0.0357967 139 113 120
-0.831348 -0.691302 -0.0355195 151 125 131
-0.811127 -0.751893 -0.015679 120 94 99
-1.05164 -0.646978 -0.176014 164 156 158
-0.869344 -0.611405 -0.0548982 186 157 161
-0.834912 -0.657629 -0.0417627 137 107 115
-0.811272 -0.732697 -0.0164444 125 100 107
-0.926081 -1.13076 0.00798421 106 88 91
-0.854987 -0.633529 -0.0370865 167 140 146
-0.815431 -0.714286 -0.0195303 128 104 112
-1.0876 -0.651501 -0.175577 167 168 168
-0.832374 -0.691478 -0.0155722 136 113 120
-0.8325 -0.730238 -0.0162275 122 98 104
-0.870747 -0.613544 -0.0354165 198 163 167
-0.836692 -0.677947 -0.0177215 123 103 109
-0.831089 -0.750291 -0.0164915 120 94 100
-1.108 -0.65229 -0.172116 150 152 152
-0.853826 -0.652017 -0.0160742 181 147 153
-0.830258 -0.751932 0.00434938 99 76 82
-1.16959 -0.665453 -0.19283 153 157 155
-0.831576 -0.790529 0.00355887 131 105 110
-0.831432 -0.81196 0.00233711 147 121 127
-0.852643 -0.673491 0.00398302 175 139 144
-1.06962 -0.652613 -0.114575 158 153 154
-0.889553 -0.613322 -0.01598 200 165 169
-0.870935 -0.653407 0.00290275 176 138 142
-0.836168 -0.716227 0.0182719 133 111 117
-0.835512 -0.730577 0.0214624 101 82 88
-0.910287 -0.612462 -0.0158517 211 179 182
-0.87464 -0.635201 0.00107608 197 158 161
-0.849821 -0.770922 0.023466 91 70 76
-0.850294 -0.791693 0.024019 99 77 82
-0.91119 -0.592453 -0.015602 202 163 166
-0.869074 -0.670912 0.00532977 193 154 159
-0.849753 -0.729995 0.024941 113 91 96
-1.19099 -0.667224 -0.154828 173 165 158
-1.08907 -0.650884 -0.0950201 165 146 148
-0.892062 -0.614787 0.00169634 219 186 188
-0.870647 -0.673115 0.0221959 200 162 166
-1.05092 -0.646858 -0.0765153 173 149 151
-0.890265 -0.652762 0.0235798 191 150 154
-0.85336 -0.74874 0.0391852 78 59 66
-0.855734 -0.766899 0.0370992 90 72 79
-0.855994 -0.793182 0.0392529 84 62 70
-1.17103 -0.688371 -0.13344 145 139 136
-0.870701 -0.711055 0.0434909 133 108 113
-1.24995 -0.686613 -0.155352 145 127 119
-1.06904 -0.647724 -0.0733734 159 133 136
-1.0122 -0.625624 -0.0498607 174 162 164
-0.873559 -0.693397 0.0394379 178 145 149
-0.866562 -0.750558 0.0489615 77 58 65
-1.26305 -0.688597 -0.15928 147 120 115
-1.09787 -0.665036 -0.0783685 139 121 125
-1.07014 -0.651432 -0.0562432 177 156 158
-1.03199 -0.629048 -0.052902 177 158 160
-0.914592 -0.615225 0.0201869 212 171 175
-0.891077 -0.673233 0.0434054 168 131 135
-0.87896 -0.678181 0.0387842 184 145 150
-0.949752 -1.03132 0.0477116 146 123 127
-0.930876 -0.61302 0.0224944 194 157 160
-0.909634 -0.652008 0.0230219 194 154 158
-0.895005 -0.655609 0.0393311 179 141 146
-0.889751 -0.691774 0.043367 182 146 150
-1.17189 -0.704098 -0.0931316 169 147 144
-1.04995 -0.646734 -0.0376952 174 151 152
-0.876061 -0.717776 0.0577947 91 71 77
-0.878068 -0.749507 0.0562085 94 77 83
-0.890411 -0.770727 0.066313 80 63 69
-1.13053 -0.668839 -0.073803 156 128 123
-0.91083 -0.672252 0.0411588 171 135 138
-0.894578 -0.694951 0.0589686 152 119 124
-0.889945 -0.750589 0.0647717 81 64 70
-0.88823 -0.789098 0.06766 75 58 65
-1.10942 -0.88983 0.0460546 126 125 133
-1.24812 -0.692596 -0.113223 139 115 108
-1.11022 -0.617338 -0.153617 168 162 157
-1.23552 -0.715098 -0.111348 108 83 83
-0.968798 -0.615423 0.0240512 153 135 138
-0.929754 -0.65198 0.0420841 166 132 135
-1.17153 -0.708063 -0.0743726 141 123 120
-0.910066 -0.692005 0.0638935 166 134 138
-0.911157 -0.71048 0.0627195 149 122 126
-0.896042 -0.792847 0.0758093 85 67 74
-0.895384 -0.80563 0.0768187 81 63 71
-0.968203 -0.630167 0.0430487 153 132 135
-0.899013 -0.72836 0.0773795 84 65 72
-0.910362 -0.753314 0.08214 92 74 79
-0.909461 -0.771394 0.0844437 98 79 84
-1.24946 -0.709701 -0.0746406 126 110 105
-0.987743 -0.629916 0.0447606 133 120 123
-0.957323 -0.638607 0.0587403 152 124 127
-0.947585 -0.669964 0.0669653 159 126 130
-0.936441 -0.677757 0.0763276 124 96 102
-1.08901 -0.669993 -0.0349935 126 110 110
-0.930129 -0.71114 0.0856461 155 129 133
-0.952209 -0.671967 0.0828287 148 117 121
-1.448 -1.16967 0.125454 111 123 125
-0.921083 -0.768371 0.0949579 104 85 90
-1.10872 -0.703715 0.0138053 146 137 139
-0.970812 -0.652998 0.0832782 155 126 130
-1.01027 -0.652603 0.0663026 171 146 148
-0.967643 -0.669623 0.0892854 160 128 131
-1.06946 -0.68918 0.0471742 171 146 148
-0.967976 -0.69026 0.106376 156 124 128
-1.03081 -0.655843 0.0859725 134 122 124
-1.10913 -0.693678 0.0450408 155 137 140
-0.970492 -0.71228 0.121851 146 117 122
-1.00761 -0.670086 0.107448 158 130 133
-0.967363 -0.7276 0.125429 140 118 123
-1.04623 -0.673632 0.0979824 153 124 126
-0.989946 -0.694543 0.120322 158 125 129
-0.972554 -0.729432 0.139545 90 77 83
-1.02788 -0.695594 0.118101 150 123 125
-0.72979 -1.19011 -0.154212 143 127 131
-1.04339 -0.698374 0.117647 144 124 124
-0.810243 -0.771072 -0.0353304 139 112 118
-1.00866 -0.717419 0.136992 129 101 106
-1.02304 -0.717902 0.139811 138 109 111
-1.00254 -0.792182 0.152307 75 61 65
-1.01004 -0.738281 0.156247 155 136 139
-0.923087 -1.11175 0.00702443 110 93 97
-0.931363 -0.869788 0.0605086 121 99 104
-1.44654 -1.05146 0.0659641 74 73 79
-1.43122 -1.07201 0.0669975 53 53 62
-1.40661 -1.06976 0.0681733 45 46 55
-1.42865 -1.08763 0.0701154 55 56 63
-1.42952 -1.08951 0.0875624 51 52 59
-1.26986 -0.953007 0.0251751 121 99 103
-1.44694 -1.08954 0.0840381 61 61 66
-1.36629 -1.05317 0.101088 27 27 39
-1.44546 -1.0735 0.0865302 76 74 75
-1.43213 -1.05221 0.0848342 94 92 93
-0.888613 -1.09133 -0.0130238 93 75 80
-1.30364 -1.11181 -0.00622648 77 61 65
-0.785504 -0.949734 -0.132282 141 112 119
-0.969219 -0.91106 0.083352 124 107 112
-1.19046 -1.21014 0.0636372 30 31 44
-0.848049 -0.691141 -0.0341765 164 139 144
-0.908944 -1.23208 0.044516 106 86 90
-1.50877 -1.17494 0.124979 99 100 107
-0.803411 -0.971515 -0.111427 144 117 123
-1.38767 -1.23118 0.146687 74 75 80
-0.879119 -0.676316 -0.327287 227 234 244
-1.44866 -1.27237 0.165151 64 67 70
-0.888933 -0.851304 0.0265405 134 111 116
-0.90972 -1.17038 0.0246256 95 75 79
-1.02837 -1.13139 0.100866 76 76 81
-0.84671 -0.648823 -0.134508 203 169 175
-0.998588 -0.721969 -0.432004 221 227 235
-0.961988 -0.772607 -0.394257 227 232 239
-0.888479 -0.827385 -0.333384 200 203 211
-0.831709 -0.850956 -0.293665 141 141 151
-0.91041 -0.710969 -0.351782 229 234 244
-0.90954 -0.72907 -0.333707 222 228 238
-0.884482 -0.747818 -0.319197 223 229 239
-0.828384 -0.851744 -0.274933 142 143 152
-1.00919 -0.689546 -0.413315 179 190 182
-0.888328 -0.689972 -0.316465 224 231 240
-0.849422 -0.75023 -0.295456 226 232 241
-0.968363 -0.871022 0.0660679 118 99 103
-0.845351 -0.750177 -0.275767 226 233 243
-0.828945 -0.769793 -0.271837 216 220 230
-0.827796 -0.790822 -0.257109 169 161 168
-0.907358 -0.672002 -0.314326 223 230 239
-0.868482 -0.690281 -0.294638 228 234 242
-0.867444 -0.710448 -0.274633 210 216 226
-0.848799 -0.751337 -0.257345 216 210 218
-0.808891 -0.789108 -0.233631 142 134 141
-0.754284 -0.890932 -0.19236 129 111 116
-0.752081 -0.990709 -0.193115 145 128 133
-0.826245 -0.870837 -0.093418 103 81 87
-0.929982 -0.651665 -0.33362 199 209 208
-0.752195 -0.911369 -0.174893 139 119 123
-0.735417 -0.934029 -0.157916 118 104 108
-1.291 -1.0687 0.0349013 60 49 57
-0.738061 -0.950678 -0.154699 118 101 105
-0.87049 -0.650262 -0.273989 220 224 233
-0.756945 -0.772673 -0.173958 119 93 97
-0.750593 -0.81182 -0.154912 114 88 95
-0.737061 -0.855731 -0.15486 124 100 107
-0.734438 -0.868957 -0.150798 116 96 101
-0.73352 -0.891388 -0.152883 119 102 107
-0.73425 -0.911692 -0.154631 121 105 111
-0.925157 -0.638872 -0.310284 185 194 204
-0.905868 -0.634371 -0.293383 214 222 232
-0.831575 -0.672568 -0.232741 148 148 155
-0.810031 -0.711472 -0.212802 213 202 210
-0.751994 -0.791497 -0.15524 92 61 65
-0.734908 -0.872541 -0.134885 111 90 96
-0.732573 -0.891436 -0.134887 114 95 101
-0.83571 -0.652959 -0.23108 167 166 169
-0.811623 -0.692655 -0.213037 189 190 200
-0.793903 -0.713391 -0.192665 207 177 184
-0.77495 -0.710635 -0.171674 167 141 147
-0.757123 -0.751644 -0.153645 112 90 99
-0.750273 -0.832269 -0.134571 106 82 89
-0.737734 -0.857767 -0.138425 115 92 98
-0.730267 -0.909969 -0.129059 112 93 99
-0.813209 -0.672914 -0.193052 138 131 135
-1.36818 -1.13103 0.0474394 44 45 60
-0.809119 -0.690382 -0.192443 177 157 164
-0.769595 -0.949585 -0.0340187 99 80 85
-0.753166 -0.792589 -0.136287 91 62 68
-0.751741 -0.813342 -0.135852 102 77 83
-0.735002 -0.9135 -0.115003 108 87 93
-0.73327 -0.926425 -0.114629 103 81 89
-1.03187 -0.693942 -0.356462 197 200 209
-0.834431 -0.636134 -0.213115 135 135 139
-0.777299 -0.699414 -0.156188 173 143 151
-0.808509 -0.850904 -0.0552375 121 102 107
-0.757842 -0.755055 -0.136611 106 85 94
-0.756479 -0.772003 -0.133249 90 65 72
-0.737059 -0.892773 -0.119785 112 90 96
-0.791992 -0.672792 -0.154063 171 142 149
-0.77336 -0.710464 -0.135406 142 117 124
-0.797132 -0.655908 -0.153458 124 107 114
-0.777773 -0.695991 -0.138661 164 133 141
-0.757911 -0.790338 -0.120205 74 46 52
-0.757524 -0.810309 -0.120051 99 75 81
-0.756709 -0.832458 -0.115114 103 80 87
-0.747002 -0.909841 -0.112384 106 83 89
-0.753307 -0.891217 -0.0941452 105 82 88
-1.00796 -0.647789 -0.294762 127 124 118
-0.79492 -0.653613 -0.133423 93 83 90
-0.757182 -0.854212 -0.0989899 106 84 92
-0.761134 -1.20882 -0.192727 149 131 136
-0.813938 -0.636393 -0.134094 193 169 175
-0.929297 -0.633193 -0.214855 152 154 158
-0.795413 -0.658346 -0.120273 133 114 120
-0.76388 -0.868695 -0.0934614 110 87 94
-0.765079 -0.87048 -0.074357 105 83 91
-0.762852 -0.888829 -0.0719591 106 84 92
-0.757922 -0.894569 -0.079717 104 81 87
-0.813778 -0.636109 -0.115175 178 144 152
-1.05102 -0.649136 -0.274433 137 142 138
-0.776332 -0.752649 -0.0827463 101 78 86
-0.776618 -0.772176 -0.0782139 98 76 84
-1.05175 -0.66235 -0.278665 111 113 117
-0.868942 -0.628379 -0.13474 188 177 182
-0.785621 -0.830618 -0.0715565 96 74 80
-0.774625 -0.852677 -0.0603466 92 73 80
-0.787329 -0.850806 -0.0532125 95 76 83
-0.789587 -0.890826 -0.0539316 94 74 81
-0.94987 -0.765759 0.0633676 91 73 79
-0.907568 -0.630041 -0.135278 197 184 191
-0.787656 -0.90927 -0.0333227 93 72 80
-0.796473 -0.852545 -0.0375368 110 90 97
-0.807362 -0.890789 -0.0328225 101 82 89
-0.809034 -0.910354 -0.0338838 92 71 77
-0.809956 -0.790742 -0.0349128 143 116 121
-0.809616 -0.810209 -0.0343041 143 118 123
-0.808317 -0.909807 -0.0130186 111 93 99
-0.990604 -0.630486 -0.135474 179 167 169
-0.810556 -0.850533 -0.0148864 141 120 126
-0.810727 -0.870413 -0.0140824 130 112 118
-0.81112 -0.889695 -0.0125481 108 91 97
-0.829724 -0.770846 -0.015239 125 97 102
-0.828808 -0.791217 -0.0137367 139 110 115
-0.828268 -0.830523 -0.0132468 167 140 145
-0.813291 -0.85227 -0.000521656 144 123 129
-0.813917 -0.871731 0.00240207 150 131 137
-0.811012 -0.89083 0.00377626 122 104 109
-1.28431 -0.990359 0.00804906 181 145 150
-0.848196 -0.710994 -0.0144957 169 141 146
-0.829132 -0.851186 0.00483024 168 149 155
-1.16965 -0.667959 -0.211984 142 152 151
-0.828256 -0.891485 0.00637653 148 125 131
-1.02886 -0.646142 -0.113832 165 150 152
-0.848853 -0.811053 0.00504842 132 107 112
-1.30918 -1.18883 0.106644 53 52 69
-1.15188 -0.662409 -0.169654 140 134 130
-0.849534 -0.891401 0.0252826 156 130 136
-0.849081 -0.911189 0.0261161 159 133 139
-0.868621 -0.830556 0.00738523 120 96 101
-0.866745 -0.850868 0.00917475 143 116 121
-1.0516 -0.650912 -0.0955528 168 153 154
-0.869803 -0.850763 0.0252526 153 126 132
-0.868647 -0.870437 0.0250234 160 133 139
-1.06955 -0.648449 -0.0945237 170 152 154
-0.888386 -0.670263 0.00653574 206 165 169
-0.888495 -0.810293 0.00747078 100 77 82
-0.887883 -0.830376 0.00696469 108 84 89
-0.888951 -0.770589 0.0237725 96 75 80
-0.889653 -0.811749 0.0255495 113 90 95
-0.868155 -0.930228 0.0266589 149 126 131
-1.14823 -0.665469 -0.133131 161 140 142
-0.888419 -0.790411 0.0251845 109 86 90
-0.888238 -0.890527 0.0275531 133 111 117
-0.869762 -0.930796 0.0439452 144 122 127
-1.22956 -0.671874 -0.154302 159 144 139
-1.10699 -0.650933 -0.0927704 153 131 132
-0.909129 -0.830211 0.0259383 104 84 89
-0.889149 -0.930426 0.0461165 144 124 128
-0.967772 -0.648246 0.0083721 197 160 163
-0.928364 -0.81096 0.027858 98 78 83
-0.909115 -0.891556 0.0442317 115 96 101
-0.909888 -0.910786 0.0470906 125 106 111
-0.908612 -0.930223 0.0468394 136 117 122
-1.03418 -0.643618 -0.0344265 157 130 132
-1.20741 -0.671345 -0.054946 140 124 119
-0.949641 -0.690656 0.0256272 173 137 141
-0.9283 -0.751298 0.0262475 122 98 104
-0.929465 -0.8304 0.0290577 99 80 85
-0.929003 -0.87117 0.045081 104 84 89
-1.18929 -0.686178 -0.113894 153 132 130
-0.930291 -0.749961 0.0418269 126 103 107
-0.932139 -0.771338 0.0396489 97 76 81
-0.92838 -0.930021 0.0468203 117 98 103
-0.908239 -0.949023 0.0465902 142 122 127
-1.03367 -0.645188 -0.0154359 132 114 116
-0.947532 -0.72992 0.0286072 172 138 142
-0.949051 -0.831283 0.0459608 107 86 91
-0.844707 -0.890833 -0.0365689 165 142 147
-0.949143 -0.73098 0.0453548 147 121 125
-0.949774 -0.751309 0.0439031 128 105 110
-0.948755 -0.929947 0.0448758 115 96 101
-0.969686 -0.830475 0.0461368 113 93 98
-0.968781 -0.731017 0.0461226 159 129 133
-0.968914 -0.870938 0.0467134 118 98 102
-0.968445 -0.890366 0.0466283 114 94 99
-0.968561 -0.891307 0.0652739 113 94 98
-1.17889 -0.727067 -0.0498597 149 126 134
-1.07114 -0.669045 0.00549909 143 127 130
-1.00745 -0.689414 0.0305136 167 132 136
-0.968698 -0.752252 0.0463045 122 100 104
-0.950393 -0.749673 0.063938 102 82 87
-0.968767 -0.850271 0.0655133 122 102 106
-1.20154 -0.640862 -0.124133 158 135 128
-0.969588 -0.930881 0.0660183 110 90 94
-1.02868 -0.668479 0.0284407 162 132 135
-1.00933 -0.690718 0.0467271 169 136 139
-1.00824 -0.709491 0.0473954 166 132 136
-0.989155 -0.730055 0.0487696 163 131 135
-0.969106 -0.749719 0.066374 121 99 104
-0.987626 -0.790927 0.047642 120 99 103
-0.988235 -0.811198 0.0468011 106 87 91
-0.988349 -0.830411 0.0460383 117 97 101
-0.988325 -0.830979 0.0646232 119 101 105
-1.02912 -0.687172 0.02982 164 130 134
-0.987961 -0.751536 0.0651603 141 117 121
-0.970564 -0.791819 0.0618022 117 97 101
-0.98935 -0.850973 0.0663093 120 102 106
-1.2468 -0.693417 -0.0574573 129 112 107
-1.02877 -0.68999 0.047637 169 137 141
-1.00839 -0.729157 0.0510073 173 139 144
-0.989375 -0.911076 0.0653735 114 95 100
-0.988644 -0.93078 0.0844686 122 110 116
-0.989105 -0.950048 0.0855499 123 112 117
-1.20579 -0.725038 -0.0323455 109 106 104
-1.06969 -0.685936 0.0295559 162 138 142
-1.04872 -0.688234 0.0311122 166 131 135
-1.04885 -0.68876 0.0479908 164 134 137
-1.02679 -0.70935 0.0496798 176 142 144
-0.987799 -0.770006 0.0654352 118 98 103
-1.00839 -0.830005 0.0660454 114 98 103
-1.00881 -0.851569 0.0651807 116 100 104
-0.989172 -0.911989 0.0841117 124 114 119
-1.02869 -0.710773 0.0650035 173 139 141
-1.00886 -0.751172 0.0663948 167 137 141
-0.991177 -0.769885 0.083214 103 89 95
-0.806353 -0.890871 -0.112274 123 99 105
-1.00884 -0.871155 0.0646357 117 101 105
-1.00937 -0.890446 0.084724 122 116 122
-1.16387 -0.742634 0.00235626 138 116 117
-1.00949 -0.76803 0.0845926 122 109 114
-1.00926 -0.930516 0.0869398 120 112 118
-1.00864 -0.950967 0.0863446 124 115 121
-1.00931 -0.971188 0.0853331 127 117 123
-1.00908 -0.750493 0.086761 142 120 123
-1.00941 -0.809734 0.0809536 118 113 118
-1.03002 -0.811274 0.0813539 113 111 117
-1.06875 -0.710059 0.0684097 177 144 146
-1.04995 -0.831851 0.0810848 103 101 105
-1.00941 -0.910804 0.0654164 122 107 113
-1.02823 -0.97011 0.0856496 118 114 121
-1.08867 -0.709357 0.0677688 163 138 140
-1.04913 -0.730589 0.0862108 167 133 135
-1.0292 -0.790674 0.0812781 129 119 125
-1.069 -0.850054 0.0852697 73 68 73
-1.05006 -0.850317 0.0820425 100 98 103
-0.806091 -1.13033 -0.0925413 158 135 140
-1.04981 -0.871246 0.083846 100 98 102
-1.04881 -0.911004 0.0842333 103 100 106
-1.0307 -0.954117 0.0973851 95 96 105
-1.0492 -1.00971 0.0867401 108 108 115
-1.01375 -0.770771 0.100351 100 98 103
-1.01565 -0.782915 0.0971953 97 94 98
-1.08776 -0.871919 0.0809413 65 59 64
-1.07079 -0.872294 0.0854314 82 79 85
-1.07005 -0.889736 0.0830912 87 84 90
-1.16856 -0.708726 0.0051278 119 117 118
-1.06673 -0.911153 0.086735 76 73 79
-1.06666 -0.931581 0.0855826 86 84 90
-1.04785 -0.972383 0.0984389 38 39 51
-1.06881 -0.711387 0.0849994 175 144 146
-1.03001 -0.752243 0.10387 143 120 124
-1.10621 -0.891844 0.0683932 64 58 64
-1.10327 -0.893631 0.08195 59 52 58
-1.06851 -0.951337 0.0866564 85 85 94
-1.06303 -0.968852 0.100032 109 108 115
-1.13022 -0.890819 0.0665601 82 73 78
-1.12983 -0.927736 0.076337 102 100 107
-1.06838 -0.750219 0.104455 160 130 133
-1.04788 -0.770793 0.107116 122 103 107
-1.16745 -0.911479 0.0668544 75 64 70
-1.15172 -0.91137 0.0661705 81 67 73
-1.16913 -0.930007 0.069103 79 66 72
-1.19009 -0.951283 0.0672786 93 80 85
-1.21087 -0.990706 0.0647332 74 65 72
-1.18987 -1.06879 0.0676925 35 37 60
-1.18744 -1.09052 0.0673967 28 31 54
-1.08763 -0.73397 0.102054 154 129 130
-1.06994 -0.732373 0.10358 166 136 138
-1.2492 -0.990334 0.0441854 104 91 95
-1.20766 -1.07225 0.0661824 42 43 70
-1.19319 -1.11039 0.084034 42 43 69
-1.08778 -0.750001 0.106495 155 127 129
-1.05225 -0.789137 0.121766 71 56 60
-1.24645 -0.990165 0.065022 67 58 65
-1.06951 -0.771144 0.122756 145 124 127
-1.21001 -1.03136 0.0863526 59 56 76
-1.43152 -1.15614 0.127811 89 100 111
-1.06892 -0.789243 0.125674 75 59 63
-1.25243 -0.993453 0.0802085 59 52 62
-1.19713 -1.05566 0.109158 40 39 64
-1.07272 -0.790538 0.139697 80 66 70
-1.22714 -1.01188 0.106954 43 43 64
-0.796861 -1.09444 -0.0424151 134 115 120
-1.10362 -0.796315 0.137796 120 104 108
-1.38892 -1.03826 0.0638295 54 58 61
-1.36984 -1.05151 0.0818269 51 53 58
-1.38315 -1.0408 0.0814978 32 34 43
-1.38857 -1.07119 0.086174 40 42 50
-0.821192 -1.17312 -0.0904065 168 146 151
-0.764061 -1.03002 -0.196044 147 127 132
-1.1488 -0.65015 -0.0546665 129 104 99
-0.989452 -0.990535 0.0845704 130 119 124
-0.844469 -0.891338 -0.0576202 95 75 81
-1.48852 -1.18821 0.186518 129 131 132
-1.32511 -1.06525 0.0319545 66 57 65
-0.929366 -1.03101 0.0664085 134 114 118
-0.910042 -0.58869 -0.194006 161 157 155
-0.828377 -0.87091 -0.0737019 102 83 88
-0.905357 -1.1513 -0.0110394 105 86 90
-1.11945 -0.696725 0.0580496 154 139 139
-0.807413 -0.830796 -0.114105 120 95 100
-1.49029 -1.2109 0.206667 81 81 83
-1.40961 -1.17031 0.167187 88 106 111
-1.24883 -1.17 0.0858183 54 56 78
-0.989445 -0.830058 0.0263798 104 83 87
-0.914158 -0.75231 -0.353899 221 226 234
-0.872777 -0.869204 -0.312885 143 145 153
-0.929657 -0.730188 -0.35352 226 233 242
-0.885842 -0.846529 -0.314973 163 163 171
-0.764264 -1.0894 -0.215389 132 123 128
-0.764182 -1.08859 -0.197338 148 131 136
-0.747663 -1.071 -0.193517 142 127 132
-0.882232 -0.828062 -0.294659 194 197 206
-0.763914 -0.969866 -0.19441 151 132 137
-0.748471 -1.01042 -0.174567 138 118 123
-0.748184 -1.03096 -0.174897 138 119 124
-0.734783 -1.07115 -0.17224 136 120 124
-0.748717 -1.09124 -0.173463 151 132 137
-0.969566 -0.673326 -0.354139 209 217 228
-0.948352 -0.691321 -0.334995 201 206 212
-0.880956 -0.832407 -0.28434 149 150 157
-0.769452 -0.851072 -0.193607 129 101 104
-0.75301 -0.931393 -0.173892 143 123 128
-0.752046 -0.950372 -0.174239 141 122 127
-0.75111 -0.970683 -0.174257 140 119 124
-0.735729 -1.01049 -0.15415 115 97 101
-0.967625 -0.685957 -0.352549 207 213 221
-0.889016 -0.791023 -0.277101 212 211 221
-0.88622 -0.808239 -0.278496 191 183 192
-0.786762 -0.771317 -0.193555 153 128 136
-0.751922 -0.951053 -0.154996 127 105 111
-1.17476 -1.21939 0.061082 9 13 26
-0.733967 -1.04973 -0.14075 119 102 106
-0.967106 -0.672577 -0.335022 191 198 206
-0.90993 -0.711652 -0.295634 177 182 192
-0.901054 -0.750363 -0.281738 201 194 205
-0.737418 -0.973837 -0.135131 109 89 96
-0.735799 -0.990367 -0.136829 110 91 96
-0.733848 -1.01067 -0.135484 111 93 97
-0.7332 -1.02938 -0.136637 113 95 99
-0.78869 -0.750712 -0.17409 170 143 149
-0.950032 -0.771054 0.0256451 116 94 99
-0.748509 -0.911158 -0.137137 117 96 102
-0.809801 -0.950769 -0.0748986 113 90 95
-0.738859 -0.956646 -0.136837 112 91 98
-0.887829 -0.730469 -0.252693 183 177 187
-0.989053 -0.67027 -0.332519 183 188 197
-0.859621 -0.712148 -0.222947 150 137 146
-0.743724 -0.947792 -0.11127 102 79 85
-0.737514 -1.01684 -0.0901063 117 98 103
-0.906687 -0.681258 -0.21683 113 104 105
-0.742342 -0.98474 -0.0865705 110 90 95
-0.748661 -0.951608 -0.0759539 106 83 89
-1.04898 -0.648787 -0.2932 141 141 139
-1.36952 -1.11197 0.0852513 101 104 114
-1.06965 -0.648827 -0.274413 144 149 145
-1.00464 -0.749841 -0.434114 220 226 236
-1.08514 -0.648354 -0.292023 150 155 150
-1.06844 -0.648466 -0.255977 155 163 165
-0.771667 -0.928861 -0.0365012 94 74 81
-0.762239 -0.990146 -0.0308834 102 79 85
-0.775576 -0.968573 -0.0212044 104 83 89
-0.79196 -0.930248 -0.0183884 89 70 77
-0.789488 -0.950194 -0.0141004 95 77 83
-0.785513 -0.969052 -0.0120205 100 81 87
-0.792611 -0.992723 -0.00158768 97 79 85
-0.854971 -0.61589 -0.0589643 166 143 148
-0.798892 -1.00669 0.00496858 94 77 83
-1.34803 -1.1505 0.145253 72 70 76
-0.978163 -0.636616 -0.120218 194 159 163
-0.873878 -0.595517 -0.0564863 216 178 182
-0.810473 -1.00882 0.00787466 91 72 79
-1.03031 -0.628888 -0.13446 175 167 168
-0.909374 -1.04959 0.0783602 113 95 99
-0.832752 -0.969498 0.00880854 127 106 112
-0.8106 -0.950534 0.0281293 122 100 108
-1.28985 -1.0507 0.0650324 51 53 71
-0.828128 -0.990806 0.0254159 71 53 60
-1.04821 -0.63205 -0.114491 174 160 162
-0.850394 -0.729777 0.00380598 143 118 122
-0.833693 -0.891598 0.0214395 147 121 127
-0.832972 -0.93066 0.0222992 131 109 114
-1.08879 -0.630701 -0.135724 153 154 153
-0.875018 -0.61443 -0.0183753 217 183 187
-1.03021 -0.630222 -0.0957457 178 163 163
-0.83109 -1.00748 0.045683 100 81 86
-1.08885 -0.631683 -0.114421 165 157 156
-0.852141 -0.951767 0.0411867 128 105 111
-0.850418 -1.00779 0.0442272 101 84 89
-1.12826 -0.631528 -0.134185 154 149 144
-0.889397 -0.651276 0.00513271 188 147 151
-0.870099 -0.710149 0.0248416 158 129 132
-0.870567 -0.751674 0.0234443 96 76 81
-0.86991 -0.771693 0.0232953 101 80 84
-0.852338 -0.931575 0.040727 136 114 119
-0.871151 -0.729876 0.0233537 142 117 121
-1.16649 -0.635837 -0.135979 164 151 142
-1.08841 -0.632111 -0.0950632 152 138 137
-1.06822 -0.632598 -0.0729431 160 138 140
-0.889174 -0.690811 0.0263157 191 154 159
-0.907769 -0.790319 0.0105158 103 83 88
-0.870451 -0.890852 0.0432972 145 124 128
-0.869538 -0.950487 0.0451828 135 115 119
-1.14806 -0.633909 -0.114926 168 148 139
-1.12913 -0.634504 -0.0949883 161 140 133
-1.08896 -0.6325 -0.0766685 173 159 157
-0.889543 -0.950295 0.0474289 148 128 132
-0.872247 -0.990392 0.0608692 135 114 120
-1.18321 -0.639617 -0.12146 142 125 117
-1.16625 -0.634994 -0.114202 168 147 139
-1.14992 -0.652559 -0.0949079 157 131 123
-1.09592 -0.688463 -0.0182801 96 102 104
-1.10809 -0.648172 -0.0734382 169 151 151
-0.8907 -0.728856 0.0426516 131 106 111
-0.909804 -0.851659 0.0423438 101 81 86
-0.889686 -1.03066 0.0643532 139 119 123
-1.23032 -1.17253 0.104453 25 27 42
-1.15045 -0.651121 -0.0728357 134 104 99
-1.13114 -0.649233 -0.0732333 139 116 113
-0.908605 -0.768908 0.042291 93 74 79
-0.91162 -0.932213 0.0611516 141 120 124
-0.910473 -0.971464 0.0633921 142 121 126
-0.908243 -0.991287 0.0639593 138 117 121
-1.18889 -0.651031 -0.0955789 150 127 118
-0.820804 -0.743569 -0.145396 148 119 127
-1.18867 -0.685135 -0.152093 158 143 137
-1.11043 -0.652698 -0.0558949 169 141 138
-1.09042 -0.664683 -0.0526809 129 107 102
-0.910897 -1.03065 0.0652134 129 110 113
-0.933365 -0.616092 -0.271799 153 150 143
-1.17017 -0.652185 -0.0750714 137 111 103
-0.932046 -0.892041 0.0613308 120 100 105
-0.912653 -1.03313 0.0765668 110 92 96
-1.18923 -0.651356 -0.0749447 125 107 100
-0.928327 -0.990968 0.0655472 142 120 124
-0.932311 -0.992076 0.079744 140 119 123
-0.930839 -1.05015 0.0791735 126 107 111
-1.20707 -0.655969 -0.0744354 150 141 135
-0.968789 -0.811075 0.0639323 124 105 108
-0.949819 -0.971189 0.0823311 139 117 122
-0.950578 -0.991024 0.0825769 137 115 120
-0.950537 -1.03091 0.0823239 135 113 117
-0.98905 -0.671317 0.0448987 167 133 136
-0.970523 -0.890574 0.0836118 126 111 115
-0.969679 -0.951081 0.0832542 131 112 116
-0.968905 -0.971103 0.0847945 134 116 121
-0.730332 -1.17057 -0.173246 151 132 137
-0.840877 -0.838594 -0.0757362 98 81 85
-1.15038 -0.708381 -0.0129502 145 141 141
-1.16786 -0.708763 -0.0130013 126 122 122
-1.00934 -0.671814 0.0447785 173 141 144
-0.989793 -0.712397 0.0642785 165 133 137
-0.970718 -0.871632 0.0827526 127 113 117
-0.971952 -1.05196 0.097738 123 111 117
-1.18941 -0.690846 -0.0329404 131 120 115
-1.16837 -0.692741 -0.0131496 120 111 109
-0.974091 -0.766323 0.080899 106 90 95
-0.988858 -0.870984 0.0847397 126 117 122
-1.42644 -1.18815 0.122184 95 101 109
-0.988018 -1.01095 0.0849609 129 116 121
-0.985998 -1.03238 0.0988921 123 114 120
-1.01373 -0.626295 -0.0780435 188 161 164
-1.23004 -0.693306 -0.037146 119 109 107
-1.00775 -0.831759 0.0826101 120 116 121
-0.989823 -1.0113 0.100067 132 130 137
-0.990108 -1.0712 0.0997836 128 127 132
-1.20899 -0.695015 -0.0187373 112 105 102
-1.0096 -0.731804 0.0835387 165 133 137
-1.38733 -1.22986 0.185698 56 56 59
-1.00946 -0.989517 0.0992659 112 111 118
-1.01014 -1.09053 0.101269 109 107 113
-1.1897 -0.699238 0.000151823 95 103 102
-1.12818 -0.707725 0.0250703 159 143 146
-1.02898 -1.01108 0.100419 43 43 53
-1.02882 -1.03226 0.0988139 93 92 99
-1.02613 -1.05148 0.0994016 81 80 88
-1.02716 -1.0722 0.100454 89 88 95
-1.18847 -0.709177 0.00439824 130 129 129
-1.02953 -0.710829 0.0837871 178 142 145
-1.04927 -1.0308 0.0878017 91 92 99
-1.0414 -1.09085 0.102364 94 93 98
-1.03003 -1.09343 0.101728 80 79 86
-1.04892 -0.710828 0.0845679 178 143 145
-1.16925 -0.93125 0.0422427 159 137 140
-1.1887 -0.970098 0.0425446 81 70 74
-1.1501 -0.988602 0.0638263 72 66 73
-1.10515 -1.0102 0.0698554 81 81 89
-1.08652 -1.03295 0.0849973 68 68 78
-1.06843 -1.07106 0.0868417 58 60 69
-1.07102 -1.08938 0.0984365 76 74 82
-1.21042 -0.952911 0.0434517 95 84 89
-1.21064 -0.972294 0.0431995 124 107 112
-1.21043 -0.990642 0.0423319 97 86 90
-1.19156 -1.03028 0.0462984 89 82 88
-1.16917 -1.0288 0.0654941 63 60 75
-1.02985 -0.731612 0.103884 164 131 134
-1.2314 -1.0098 0.0439743 91 80 86
-1.23117 -1.02913 0.0437 94 84 89
-1.21151 -1.07057 0.04371 72 68 76
-1.23199 -1.11101 0.0465118 51 50 73
-1.26667 -1.20952 0.0476128 48 50 71
-1.21054 -0.931915 0.0474364 89 76 81
-1.26909 -1.03074 0.0439802 71 64 72
-1.26791 -1.06926 0.0456332 58 55 76
-1.27119 -1.09172 0.0444599 53 51 74
-1.2888 -1.15071 0.0462967 46 46 72
-1.29429 -1.23048 0.0439454 121 121 140
-1.10499 -0.714288 0.0824361 148 132 131
-1.30844 -1.01316 0.0293491 61 52 57
-1.30853 -1.03173 0.0285731 69 59 65
-1.29638 -1.03279 0.0320235 73 60 66
-1.29149 -1.05299 0.0315583 73 66 73
-1.30893 -1.06952 0.045477 63 56 66
-1.3078 -1.08969 0.0459442 64 60 78
-1.30777 -1.14935 0.048931 52 51 79
-1.32601 -1.07227 0.121938 149 152 162
-1.31129 -1.19469 0.0439687 44 43 70
-1.28744 -1.21016 0.0681609 101 102 122
-1.29237 -1.23019 0.0675289 72 74 93
-1.1663 -0.892414 0.082621 90 75 80
-1.33092 -1.03128 0.029559 53 47 57
-1.32721 -1.04827 0.0471305 48 44 54
-1.30717 -1.18805 0.0660616 50 49 75
-1.30895 -1.21054 0.0670361 44 45 67
-1.30741 -1.23081 0.0669775 119 120 138
-1.34884 -1.03109 0.0451494 46 44 55
-1.33006 -1.0706 0.0470206 56 53 63
-1.35004 -1.05121 0.046103 43 42 51
-1.33013 -1.09093 0.0655158 42 41 61
-1.32833 -1.13076 0.0706049 36 38 56
-1.30953 -1.21041 0.0854032 20 21 44
-1.30863 -1.2303 0.0858389 26 27 48
-1.30986 -1.17058 0.0856276 20 21 45
-1.32856 -1.15032 0.083755 26 28 49
-1.30725 -1.21025 0.105013 35 35 52
-1.34949 -1.05123 0.0852568 29 31 43
-1.00673 -1.13044 0.0871194 123 112 117
-1.35007 -1.07227 0.0837025 38 41 53
-1.33012 -1.15069 0.104881 85 85 98
-1.32774 -1.19108 0.107693 49 51 66
-1.36907 -1.07132 0.0842637 36 39 49
-1.32888 -1.12976 0.105774 100 98 109
-1.40837 -1.08909 0.0844905 52 54 62
-1.00842 -1.12978 0.0995222 118 116 122
-1.34806 -1.07034 0.108041 73 75 82
-1.35093 -1.09311 0.105167 94 96 106
-1.32571 -1.21149 0.125363 13 14 31
-1.36933 -1.07092 0.105192 52 53 61
-1.34726 -1.12934 0.107074 93 92 106
-1.32834 -1.13136 0.124967 87 84 93
-1.32964 -1.1504 0.126221 59 58 66
-1.43422 -1.03501 0.0883126 90 87 89
-1.38879 -1.06903 0.106586 30 32 40
-1.36935 -1.09214 0.125728 93 99 105
-1.332 -1.11323 0.125007 95 92 104
-1.32969 -1.13064 0.143605 74 70 76
-1.33041 -1.17113 0.144191 63 62 69
-1.38874 -1.07391 0.123969 69 68 73
-1.31279 -1.25013 0.161794 55 54 59
-1.37002 -1.09165 0.141137 75 79 86
-1.38814 -1.21157 0.165976 69 70 73
-1.32949 -1.1706 0.162772 69 69 75
-1.33033 -1.23071 0.162371 60 59 63
-1.38558 -1.09123 0.14342 86 89 95
-1.33466 -1.13281 0.159022 88 86 92
-1.3304 -1.1513 0.161008 94 94 98
-1.31204 -1.23794 0.176487 97 94 97
-1.12662 -0.836654 0.0679868 111 94 98
-0.794571 -1.17213 -0.0608535 118 101 105
-1.40812 -1.07018 0.137114 68 66 67
-1.39518 -1.07714 0.139109 75 73 76
-1.34798 -1.11646 0.15987 72 72 86
-1.32788 -1.23161 0.178362 65 64 69
-0.785226 -0.930217 -0.133048 139 111 117
-1.1659 -0.638181 -0.192991 170 172 167
-1.08976 -0.830663 0.06524 120 116 121
-1.39016 -1.252 0.167081 64 66 69
-0.84359 -0.750059 -0.0695628 173 145 153
-0.74674 -1.17118 -0.134258 141 123 127
-0.916984 -0.748641 -0.366448 230 237 244
-1.48975 -1.22907 0.205157 87 88 91
-1.42415 -1.07393 0.101827 66 65 69
-0.8898 -1.23117 0.0238338 113 94 98
-1.33337 -1.03247 0.0856692 21 25 38
-1.46895 -1.1551 0.102145 102 107 114
-0.986426 -1.21065 0.067542 136 117 121
-1.51039 -1.2151 0.258591 44 44 46
-0.826931 -1.09018 -0.0717318 143 119 125
-0.849273 -1.00981 -0.0130365 98 78 84
-1.20805 -1.14824 0.0860774 43 45 65
-1.27321 -1.11315 0.105615 29 29 52
-0.87775 -0.697475 -0.330349 228 233 241
-1.10594 -0.953104 0.0682772 81 80 87
-0.770323 -1.16952 -0.248167 122 119 126
-0.750663 -1.18923 -0.23018 135 128 133
-0.751045 -1.21117 -0.231199 134 128 132
-0.75462 -1.09192 -0.231049 134 128 136
-0.750208 -1.0904 -0.215773 136 128 134
-0.751837 -1.11101 -0.214001 136 128 133
-0.730443 -1.10997 -0.211589 152 140 148
-0.733459 -1.15226 -0.208016 139 130 135
-0.733958 -1.17258 -0.209478 147 136 141
-0.728913 -1.18985 -0.193269 144 130 135
-0.729818 -1.21029 -0.192503 134 122 126
-0.872118 -0.847106 -0.325402 175 177 185
