ply
format ascii 1.0
comment Created by Open3D
element vertex 344
property double x
property double y
property double z
property uchar red
property uchar green
property uchar blue
end_header
0.387812 -1.0465 -1.14705 116 87 86
0.409853 -1.13192 -1.13526 115 36 43
0.350117 -1.07002 -1.1315 142 46 56
0.410597 -1.17034 -1.13464 95 50 55
0.33271 -1.15159 -1.13569 157 152 153
0.348631 -1.21233 -1.15253 153 131 117
0.410443 -1.18999 -1.11688 61 52 53
0.411164 -1.03125 -1.13436 129 90 93
0.350002 -1.15283 -1.15402 142 114 116
0.390561 -1.09086 -1.11008 127 40 51
0.4511 -1.10978 -1.13372 101 49 53
0.351162 -1.15055 -1.17527 136 62 66
0.369785 -1.13043 -1.11586 165 139 143
0.330176 -1.17127 -1.1528 150 143 143
0.447665 -1.05307 -1.1338 123 47 57
0.429759 -1.03206 -1.13666 117 52 61
0.410497 -1.17214 -1.09643 59 53 56
0.429758 -1.07029 -1.1157 117 36 47
0.351276 -1.15123 -1.11468 162 145 147
0.371991 -1.1245 -1.05973 156 73 76
0.352401 -1.10983 -1.11725 140 88 94
0.352542 -1.09057 -1.1162 131 49 58
0.433638 -1.13078 -1.13373 90 40 46
0.409284 -1.11004 -1.09816 100 34 42
0.392353 -1.01733 -1.13987 96 68 72
0.410318 -1.13077 -1.11403 71 47 54
0.4117 -1.11066 -1.11027 90 31 40
0.316667 -1.05559 -1.17338 63 59 64
0.371241 -1.17052 -1.09605 143 134 137
0.334372 -1.13019 -1.09928 139 94 91
0.429171 -1.13059 -1.11507 63 39 46
0.389328 -1.19318 -1.13512 107 71 75
0.314654 -1.1514 -1.17334 72 68 66
0.393398 -1.05677 -1.10147 126 43 52
0.33224 -1.01955 -1.16301 124 91 98
0.371806 -1.19101 -1.11591 144 126 117
0.334286 -1.05285 -1.13611 136 42 50
0.316205 -1.09187 -1.13763 129 108 109
0.317374 -1.07128 -1.15571 81 39 45
0.329865 -1.1514 -1.17341 123 108 108
0.429222 -1.05333 -1.1512 114 62 67
0.370503 -1.11124 -1.09554 137 91 97
0.331007 -1.1512 -1.11555 148 130 130
0.411269 -1.01578 -1.13979 106 66 70
0.329863 -1.1314 -1.15306 136 122 124
0.391139 -1.15086 -1.11516 77 68 74
0.316447 -1.05487 -1.19511 18 19 24
0.39058 -1.17219 -1.11581 74 70 75
0.354026 -1.01558 -1.15605 104 74 79
0.332763 -1.1713 -1.13645 152 144 142
0.334954 -1.01427 -1.17345 147 138 138
0.317143 -1.16904 -1.17222 102 90 82
0.431894 -1.07145 -1.13321 113 59 64
0.372965 -1.15182 -1.15583 129 51 59
0.356709 -1.1487 -1.07507 161 132 130
0.373908 -1.01698 -1.1398 96 90 91
0.410901 -1.09045 -1.10948 111 30 40
0.333602 -1.21071 -1.15505 141 115 86
0.352328 -1.01328 -1.1741 115 105 105
0.317711 -1.06975 -1.19262 16 16 22
0.369059 -1.04688 -1.15029 100 64 68
0.330342 -1.15067 -1.15291 144 136 137
0.33283 -1.11122 -1.1364 148 127 127
0.315028 -1.08951 -1.17597 44 37 41
0.390752 -1.07039 -1.11366 137 46 57
0.351616 -1.17147 -1.11482 161 148 149
0.316577 -1.07121 -1.17316 42 22 29
0.351758 -1.21066 -1.13421 149 116 81
0.371048 -1.15102 -1.11628 166 155 159
0.351509 -1.13075 -1.11696 162 130 133
0.430473 -1.15072 -1.13346 90 43 49
0.407205 -1.12702 -1.0578 120 56 57
0.328398 -1.08953 -1.15145 124 61 67
0.391178 -1.01226 -1.15598 110 64 71
0.450562 -1.0693 -1.13121 110 46 53
0.315665 -1.12861 -1.18934 77 72 64
0.431596 -1.04874 -1.13013 103 39 48
0.431115 -1.09087 -1.13319 113 54 57
0.331838 -1.0523 -1.15521 124 42 50
0.390586 -1.19168 -1.11619 77 65 63
0.427839 -1.05404 -1.11853 108 39 48
0.429792 -1.0905 -1.1132 106 31 40
0.430783 -1.11112 -1.1356 112 41 46
0.383034 -1.02686 -1.19953 155 144 138
0.445982 -1.13136 -1.11727 82 46 47
0.409978 -1.15124 -1.11536 57 49 57
0.410844 -1.05196 -1.11732 123 45 55
0.410571 -1.07094 -1.11297 124 35 45
0.430116 -1.11106 -1.11492 83 33 41
0.410732 -1.17107 -1.11609 60 55 61
0.391009 -1.05226 -1.11663 126 40 51
0.351629 -1.05193 -1.13485 135 40 50
0.390719 -1.03047 -1.13399 106 79 82
0.390262 -1.11026 -1.11029 107 38 47
0.371778 -1.17161 -1.15582 138 68 73
0.39047 -1.1301 -1.11254 82 58 64
0.348647 -1.13187 -1.13322 160 138 142
0.3729 -1.01193 -1.1715 128 107 108
0.390379 -1.2106 -1.11642 106 74 49
0.444174 -1.08869 -1.11733 103 44 50
0.371131 -1.03195 -1.13509 101 78 81
0.371396 -1.05239 -1.11663 131 43 54
0.370947 -1.07048 -1.11554 158 82 91
0.370297 -1.09072 -1.11393 131 44 55
0.351448 -1.03214 -1.19314 110 99 99
0.370686 -1.11171 -1.11386 136 69 78
0.319619 -1.03217 -1.16095 113 73 78
0.389894 -1.21022 -1.13545 91 72 73
0.373305 -1.01506 -1.15544 108 84 87
0.370708 -1.05089 -1.13313 118 43 52
0.371428 -1.17122 -1.11604 158 151 154
0.369545 -1.21081 -1.13235 144 123 119
0.331838 -1.17206 -1.17229 135 121 122
0.353252 -1.11015 -1.09735 138 80 84
0.353652 -1.05402 -1.1195 140 43 53
0.352418 -1.07115 -1.11586 139 46 56
0.334263 -1.03371 -1.17495 135 120 119
0.331702 -1.20877 -1.13267 134 103 77
0.352572 -1.0353 -1.13669 118 55 61
0.351321 -1.19025 -1.13366 157 144 141
0.349718 -1.15117 -1.13359 171 159 162
0.349999 -1.17041 -1.13326 162 156 159
0.352082 -1.03207 -1.15524 110 51 58
0.339325 -1.03603 -1.13896 141 39 48
0.332636 -1.07179 -1.13559 131 45 52
0.331754 -1.09098 -1.13577 134 79 83
0.334148 -1.03497 -1.15649 117 49 56
0.331914 -1.13108 -1.13505 149 130 130
0.333112 -1.19006 -1.13472 132 117 101
0.332301 -1.19088 -1.1539 131 111 100
0.315109 -1.13043 -1.15502 98 91 88
0.316797 -1.05101 -1.15757 96 55 57
0.31867 -1.07251 -1.13934 106 56 59
0.316735 -1.09032 -1.15486 107 87 87
0.317709 -1.11005 -1.15636 109 100 99
0.314352 -1.03749 -1.17416 153 147 139
0.312299 -1.13043 -1.17339 71 68 63
0.315745 -1.10937 -1.17798 52 45 44
0.31676 -1.15135 -1.15559 91 85 81
0.411098 -1.15154 -1.1345 107 42 47
0.334087 -1.19188 -1.11744 141 116 88
0.390005 -1.04758 -1.13264 116 51 60
0.33896 -1.15211 -1.10056 155 149 150
0.350012 -1.19109 -1.11474 164 142 118
0.390686 -1.17034 -1.09579 77 68 72
0.348496 -1.11146 -1.13216 152 97 102
0.327886 -1.09012 -1.19452 64 60 62
0.371578 -1.13092 -1.15658 122 61 64
0.40983 -1.03516 -1.11933 130 99 98
0.351322 -1.16934 -1.17446 137 73 77
0.331327 -1.11116 -1.11497 144 115 115
0.429434 -1.15026 -1.11617 48 39 46
0.352629 -1.13159 -1.0976 167 148 151
0.327789 -1.11087 -1.17331 94 77 75
0.370051 -1.11188 -1.13511 135 49 51
0.390933 -1.19104 -1.09473 91 70 53
0.325863 -1.16529 -1.0704 114 110 103
0.367376 -1.0676 -1.12935 134 48 57
0.430742 -1.08987 -1.15577 119 66 69
0.367104 -1.04223 -1.19115 117 114 114
0.351088 -1.11066 -1.07792 142 53 53
0.315699 -1.11101 -1.13657 106 97 94
0.370406 -1.01581 -1.18907 149 141 138
0.463151 -1.10683 -1.12438 140 125 114
0.326569 -1.06882 -1.17196 102 56 62
0.340353 -1.16905 -1.10263 154 147 151
0.411268 -1.11133 -1.13566 123 45 52
0.429139 -1.15317 -1.09662 61 46 47
0.367555 -1.04311 -1.17587 115 92 91
0.370607 -1.03091 -1.15477 97 87 88
0.391309 -1.21163 -1.09496 101 69 45
0.352598 -1.11219 -1.175 130 65 67
0.36947 -1.0285 -1.17319 110 96 98
0.34944 -1.04938 -1.15417 127 37 48
0.347251 -1.0908 -1.13026 136 51 60
0.451501 -1.09004 -1.13282 101 51 56
0.410004 -1.07133 -1.09786 120 35 44
0.428736 -1.17083 -1.11707 46 43 49
0.410061 -1.04734 -1.13011 122 73 77
0.410286 -1.02715 -1.15158 111 67 74
0.390616 -1.02976 -1.15255 106 87 88
0.39047 -1.01023 -1.17347 125 60 68
0.371614 -1.21108 -1.11803 136 97 66
0.369099 -1.02907 -1.19315 117 113 110
0.350818 -1.03293 -1.17434 118 80 84
0.33129 -1.0499 -1.17346 119 67 72
0.329546 -1.0698 -1.15233 127 40 48
0.335839 -1.03559 -1.19529 125 118 119
0.33051 -1.05037 -1.19442 128 118 120
0.3285 -1.11119 -1.1533 139 117 117
0.330883 -1.19175 -1.17347 128 110 103
0.325476 -1.06891 -1.19309 85 79 82
0.353159 -1.09276 -1.10082 125 43 51
0.391389 -1.12916 -1.1353 132 51 57
0.372101 -1.15169 -1.09529 137 120 123
0.37018 -1.13313 -1.13469 146 73 79
0.32796 -1.13046 -1.17264 106 80 80
0.34982 -1.04638 -1.17262 118 51 58
0.352241 -1.14964 -1.09718 155 131 133
0.445827 -1.071 -1.11901 107 45 52
0.314868 -1.17053 -1.13527 113 105 96
0.351767 -1.20898 -1.11444 154 119 90
0.31868 -1.09032 -1.19229 34 31 38
0.393937 -1.03759 -1.11925 115 74 77
0.388665 -1.02601 -1.17021 110 57 66
0.349607 -1.04555 -1.19429 128 115 116
0.371251 -1.11198 -1.15533 132 47 52
0.410312 -1.08999 -1.09751 115 33 42
0.390861 -1.09072 -1.09621 121 36 46
0.391344 -1.1093 -1.09801 97 34 43
0.371068 -1.0914 -1.09758 122 38 48
0.336352 -1.07256 -1.11886 133 56 62
0.3334 -1.09069 -1.11687 137 84 88
0.44515 -1.11124 -1.11751 97 45 49
0.391217 -1.07254 -1.09847 140 59 68
0.410785 -1.19187 -1.09484 67 55 46
0.391792 -1.13012 -1.09577 93 55 61
0.39101 -1.1517 -1.09475 75 57 63
0.372486 -1.07324 -1.09959 158 85 94
0.373062 -1.13184 -1.09685 140 118 123
0.371841 -1.19159 -1.09635 126 102 83
0.370763 -1.09045 -1.15244 106 79 77
0.365236 -1.04358 -1.21395 62 62 61
0.31375 -1.16787 -1.15459 106 97 85
0.354648 -1.19021 -1.09962 146 121 103
0.424311 -1.03382 -1.11986 118 80 78
0.426997 -1.09152 -1.09729 107 31 38
0.425643 -1.11027 -1.09797 95 35 40
0.410139 -1.13045 -1.09781 86 47 53
0.410785 -1.1514 -1.09571 58 48 53
0.370574 -1.21222 -1.0949 123 86 65
0.329996 -1.13168 -1.11518 148 124 124
0.331024 -1.17061 -1.11536 140 127 126
0.3535 -1.16944 -1.09731 162 150 152
0.390815 -1.15125 -1.13384 111 57 61
0.446117 -1.05649 -1.12221 126 60 67
0.369585 -1.17095 -1.13042 167 150 154
0.369544 -1.19059 -1.13179 159 147 149
0.36904 -1.1511 -1.13086 155 115 120
0.34985 -1.19031 -1.15443 156 132 134
0.347486 -1.06966 -1.1503 126 61 64
0.349558 -1.13196 -1.1527 148 84 87
0.34958 -1.17136 -1.15382 157 139 141
0.327285 -1.09071 -1.17479 87 66 69
0.335378 -1.08827 -1.0834 131 43 41
0.371307 -1.08954 -1.13477 115 69 67
0.352096 -1.09092 -1.15484 122 84 81
0.427367 -1.07265 -1.09878 119 50 55
0.41103 -1.05523 -1.10077 131 55 64
0.374052 -1.03717 -1.12181 90 64 66
0.35405 -1.07589 -1.10084 132 41 50
0.430456 -1.07329 -1.15648 114 72 71
0.411709 -1.09044 -1.15569 118 68 70
0.410639 -1.09277 -1.13614 108 54 56
0.393962 -1.09171 -1.13478 115 64 66
0.391199 -1.11056 -1.13548 146 65 71
0.389567 -1.17049 -1.13443 105 53 58
0.390626 -1.09334 -1.15461 106 44 48
0.429315 -1.17168 -1.09696 53 45 46
0.351105 -1.11247 -1.15601 131 57 56
0.350687 -1.13091 -1.17555 127 63 66
0.316939 -1.19279 -1.13726 128 113 89
0.371948 -1.0544 -1.09912 125 81 82
0.353652 -1.21247 -1.09875 135 85 63
0.33186 -1.21344 -1.11645 129 85 67
0.313878 -1.13188 -1.13495 112 99 98
0.314061 -1.15005 -1.13277 124 115 110
0.315475 -1.19109 -1.15452 130 112 91
0.449764 -1.14835 -1.11821 79 53 51
0.427135 -1.13076 -1.09847 81 41 46
0.411429 -1.07432 -1.1361 118 85 83
0.402368 -1.02189 -1.16522 113 45 59
0.351003 -1.18946 -1.17372 144 93 96
0.330776 -1.09102 -1.09853 110 63 63
0.347212 -1.07359 -1.06835 122 72 72
0.3321 -1.0684 -1.07838 128 93 90
0.424656 -1.11171 -1.05661 113 53 53
0.369568 -1.07883 -1.17342 126 116 109
0.41526 -1.03538 -1.09497 129 99 94
0.334178 -1.07382 -1.08932 103 71 69
0.430328 -1.1253 -1.057 111 49 49
0.346098 -1.09077 -1.07464 131 80 78
0.396036 -1.0346 -1.06899 122 94 89
0.424511 -1.03738 -1.09606 125 93 89
0.331842 -1.10992 -1.09676 116 62 61
0.426501 -1.05265 -1.09782 140 112 106
0.351467 -1.13179 -1.07527 144 81 81
0.342985 -1.06446 -1.16528 133 128 118
0.313764 -1.08119 -1.08743 90 83 78
0.304185 -1.16261 -1.09335 79 74 71
0.392788 -1.09223 -1.07929 124 78 78
0.391137 -1.10723 -1.07123 121 44 45
0.407602 -1.09195 -1.07545 117 71 69
0.410796 -1.05779 -1.1739 146 118 112
0.31874 -1.17263 -1.11636 105 105 100
0.37044 -1.12988 -1.07552 145 77 78
0.316576 -1.15562 -1.11939 137 133 128
0.317065 -1.05376 -1.14001 166 158 143
0.386885 -1.14185 -1.08023 190 113 113
0.370928 -1.19262 -1.15752 147 87 91
0.384851 -1.03952 -1.10171 161 149 136
0.445922 -1.07572 -1.1032 88 35 33
0.369196 -1.14401 -1.07014 136 57 58
0.426814 -1.09499 -1.07183 111 62 60
0.371919 -1.17116 -1.08164 119 96 94
0.373907 -1.07585 -1.15548 113 92 89
0.377786 -1.0925 -1.08094 139 86 85
0.337446 -1.05913 -1.08759 27 23 18
0.394144 -1.13252 -1.07346 90 44 45
0.34797 -1.16675 -1.07438 183 166 162
0.31525 -1.13314 -1.1157 97 87 84
0.345938 -1.15287 -1.0603 174 160 157
0.310519 -1.07415 -1.08902 119 116 110
0.330907 -1.05409 -1.1172 114 110 98
0.411039 -1.10519 -1.07373 121 46 51
0.390819 -1.11359 -1.05915 124 47 50
0.390068 -1.13146 -1.05501 144 81 82
0.371926 -1.11094 -1.0776 129 54 56
0.40909 -1.04641 -1.07188 93 60 55
0.411023 -1.03335 -1.07904 126 95 90
0.370934 -1.21059 -1.1553 148 114 116
0.387418 -1.07003 -1.13329 105 81 78
0.350368 -1.09113 -1.17446 139 113 109
0.412135 -1.11193 -1.05695 120 49 51
0.331283 -1.11505 -1.07998 108 81 77
0.314703 -1.15189 -1.09508 106 101 97
0.382243 -1.07751 -1.08168 131 123 117
0.446762 -1.13076 -1.10232 108 54 55
0.43164 -1.11285 -1.07612 100 42 42
0.411631 -1.07322 -1.15359 117 85 82
0.390904 -1.07273 -1.15499 118 91 88
0.314841 -1.1606 -1.07803 114 111 104
0.31881 -1.11466 -1.11338 108 98 92
0.315942 -1.135 -1.09776 128 122 117
0.406516 -1.12926 -1.08184 101 57 60
0.390976 -1.0729 -1.17621 109 80 78
0.299866 -1.14773 -1.16639 54 52 51
0.443005 -1.08614 -1.09558 101 34 33
0.340764 -1.14331 -1.06848 162 157 152
0.409172 -1.1477 -1.07907 55 52 51
0.399565 -1.05968 -1.16983 133 95 93
0.422917 -1.04301 -1.08412 111 48 52
0.319281 -1.09112 -1.12238 118 60 62
0.410628 -1.05855 -1.16166 64 36 30
