ply
format ascii 1.0
comment Created by Open3D
element vertex 165
property double x
property double y
property double z
property uchar red
property uchar green
property uchar blue
end_header
-0.309504 -0.229334 1.84574 62 70 81
-0.36474 -0.225209 1.8624 63 71 83
-0.327524 -0.252674 1.78793 128 132 136
-0.269258 -0.215707 1.82937 66 75 84
-0.350893 -0.227542 1.86417 108 113 119
-0.351873 -0.207793 1.88075 64 72 82
-0.348049 -0.229416 1.82855 115 120 125
-0.237771 -0.219258 1.78662 187 192 199
-0.291362 -0.249122 1.78445 63 71 81
-0.30365 -0.212694 1.88074 125 130 133
-0.270928 -0.27589 1.78514 66 73 82
-0.329011 -0.193696 1.83132 87 96 104
-0.290302 -0.2128 1.80253 48 56 67
-0.231 -0.22081 1.79858 191 196 203
-0.270186 -0.248175 1.76302 57 64 75
-0.23296 -0.220057 1.83714 198 203 210
-0.207685 -0.231877 1.76111 106 111 118
-0.361411 -0.245999 1.83837 58 63 74
-0.287821 -0.267443 1.78322 77 84 93
-0.212561 -0.227356 1.80325 57 65 74
-0.32851 -0.1917 1.86666 110 116 120
-0.24299 -0.254797 1.7309 89 96 105
-0.269392 -0.244695 1.77964 48 56 67
-0.329206 -0.228935 1.79288 47 55 65
-0.21001 -0.218557 1.746 76 84 91
-0.256052 -0.213079 1.78461 45 54 64
-0.327498 -0.22647 1.85914 75 83 92
-0.326893 -0.231924 1.80647 70 78 85
-0.27072 -0.214118 1.80374 100 107 114
-0.225683 -0.254339 1.71386 47 55 69
-0.22844 -0.247773 1.76741 76 84 93
-0.313379 -0.196969 1.83197 86 96 105
-0.289235 -0.250142 1.80555 67 75 84
-0.345915 -0.19325 1.86765 123 127 127
-0.327295 -0.250283 1.85308 81 89 98
-0.214968 -0.241735 1.74425 52 60 74
-0.256626 -0.275575 1.76663 203 206 207
-0.227489 -0.218027 1.75188 133 139 143
-0.307244 -0.250797 1.85313 77 85 95
-0.215607 -0.265497 1.72188 137 142 146
-0.269212 -0.231978 1.82192 66 75 85
-0.208773 -0.267315 1.76136 95 103 112
-0.270513 -0.227169 1.84286 51 59 69
-0.314542 -0.196448 1.86677 113 119 123
-0.307752 -0.211177 1.80578 92 98 106
-0.350808 -0.249839 1.82964 115 121 126
-0.247607 -0.214622 1.76789 95 102 110
-0.276061 -0.236622 1.81136 63 72 81
-0.239175 -0.268267 1.73694 207 209 209
-0.226955 -0.25287 1.73039 62 69 78
-0.2417 -0.21888 1.84519 128 135 142
-0.28774 -0.229698 1.78344 46 54 64
-0.253809 -0.216993 1.80514 79 87 96
-0.231296 -0.253121 1.81369 64 71 79
-0.306649 -0.269834 1.76733 81 86 93
-0.29045 -0.247749 1.82189 40 48 58
-0.229278 -0.269745 1.72647 95 100 108
-0.20682 -0.255032 1.81178 59 66 74
-0.230808 -0.234162 1.76628 59 67 76
-0.248147 -0.253917 1.81374 66 72 81
-0.29274 -0.217716 1.87127 104 111 117
-0.33087 -0.217119 1.79035 156 161 164
-0.346827 -0.211641 1.8657 120 125 128
-0.291023 -0.225618 1.8483 58 66 76
-0.271803 -0.274797 1.76959 94 99 106
-0.193971 -0.232584 1.76465 84 91 100
-0.267735 -0.261171 1.82105 36 46 55
-0.348918 -0.20978 1.84453 110 116 121
-0.282312 -0.257575 1.75441 202 204 204
-0.264096 -0.217429 1.76669 43 52 62
-0.289581 -0.229739 1.86445 78 86 95
-0.349205 -0.212689 1.82964 105 111 116
-0.347032 -0.231649 1.84431 50 58 67
-0.328368 -0.211364 1.86104 81 90 99
-0.265722 -0.283245 1.76256 48 57 67
-0.307619 -0.219517 1.79083 126 132 140
-0.22996 -0.233849 1.8314 74 82 90
-0.22732 -0.248235 1.82105 56 65 73
-0.257228 -0.231388 1.86272 63 71 81
-0.330974 -0.246756 1.80265 122 126 130
-0.270371 -0.231381 1.8671 76 83 89
-0.308332 -0.21032 1.82249 86 93 102
-0.231698 -0.24793 1.74265 83 91 100
-0.312471 -0.209065 1.84706 73 80 90
-0.32935 -0.20593 1.85064 88 94 103
-0.326986 -0.210727 1.82471 91 98 106
-0.309926 -0.212238 1.8645 77 85 94
-0.308942 -0.194036 1.84056 90 98 106
-0.329946 -0.230205 1.8489 71 78 87
-0.266631 -0.226899 1.76719 97 103 111
-0.268518 -0.248931 1.85982 74 83 90
-0.327133 -0.212646 1.80307 86 93 101
-0.328751 -0.216532 1.88456 93 98 105
-0.329274 -0.233786 1.82663 71 78 87
-0.308393 -0.231693 1.82809 55 64 74
-0.308903 -0.231347 1.81015 66 74 83
-0.289694 -0.229647 1.82322 63 71 81
-0.28792 -0.236206 1.81107 64 72 82
-0.283234 -0.224316 1.88371 93 98 102
-0.270946 -0.231409 1.78305 47 55 65
-0.266467 -0.231506 1.87792 87 92 95
-0.248869 -0.247456 1.82332 50 58 68
-0.249609 -0.230274 1.76291 73 81 90
-0.246254 -0.228007 1.84377 72 79 84
-0.232258 -0.233908 1.84606 61 69 77
-0.229475 -0.230997 1.7471 75 84 92
-0.196198 -0.248063 1.76468 45 53 65
-0.249162 -0.247853 1.76538 51 59 70
-0.223164 -0.265331 1.76264 40 48 62
-0.308007 -0.244962 1.80194 65 73 83
-0.228407 -0.232252 1.78386 48 56 67
-0.288446 -0.249443 1.76488 93 99 106
-0.229343 -0.213195 1.76186 83 91 98
-0.246537 -0.250497 1.74258 111 117 123
-0.288994 -0.273273 1.76735 94 99 106
-0.249413 -0.215298 1.82446 130 135 140
-0.270555 -0.215624 1.78918 48 55 65
-0.345527 -0.251109 1.84753 102 107 111
-0.328312 -0.243707 1.82387 48 56 66
-0.309781 -0.251268 1.78402 84 91 98
-0.307479 -0.226946 1.85887 79 87 97
-0.305822 -0.251503 1.77267 155 159 162
-0.26916 -0.253788 1.74949 113 118 125
-0.248478 -0.231507 1.82477 66 74 83
-0.249282 -0.231624 1.78467 51 59 69
-0.24087 -0.229673 1.79677 55 63 75
-0.228622 -0.226272 1.8054 69 77 86
-0.210542 -0.23041 1.78187 74 81 91
-0.309083 -0.231057 1.79024 47 55 64
-0.308094 -0.263191 1.77755 118 123 128
-0.291124 -0.211723 1.82626 84 93 101
-0.28411 -0.214968 1.78883 95 100 108
-0.251101 -0.248454 1.77672 44 52 62
-0.212741 -0.251891 1.76633 79 86 96
-0.196565 -0.267232 1.76441 94 102 110
-0.326656 -0.210579 1.89689 53 61 71
-0.292014 -0.237803 1.7728 42 48 56
-0.242725 -0.231585 1.74644 80 88 96
-0.21065 -0.213697 1.76066 72 77 83
-0.306641 -0.246777 1.82232 79 86 94
-0.288142 -0.209031 1.84033 107 114 122
-0.272502 -0.248538 1.82476 40 49 58
-0.24956 -0.26812 1.81898 34 43 53
-0.260441 -0.282691 1.78961 97 103 109
-0.214207 -0.281304 1.75488 194 197 198
-0.271907 -0.214743 1.84364 119 126 130
-0.218561 -0.24639 1.77757 64 73 79
-0.331855 -0.257823 1.85725 190 196 196
-0.307307 -0.268916 1.85066 83 90 98
-0.267441 -0.267696 1.80437 71 79 86
-0.276824 -0.257603 1.85477 72 81 87
-0.269335 -0.25165 1.81241 76 83 91
-0.296251 -0.213437 1.88065 82 89 96
-0.340457 -0.267946 1.85531 82 88 90
-0.240752 -0.216867 1.75136 72 81 88
-0.242157 -0.271577 1.72967 49 55 67
-0.325051 -0.263994 1.78308 161 163 163
-0.283833 -0.263198 1.79654 62 70 78
-0.249233 -0.271338 1.80732 60 67 75
-0.210422 -0.270786 1.80611 59 66 73
-0.327674 -0.187316 1.87627 103 110 112
-0.309074 -0.200173 1.87624 103 107 111
-0.289797 -0.252844 1.85407 74 83 90
-0.286451 -0.245357 1.85638 76 85 92
-0.250614 -0.252771 1.86453 76 84 91
