ply
format ascii 1.0
comment Created by Open3D
element vertex 1338
property double x
property double y
property double z
property uchar red
property uchar green
property uchar blue
end_header
1.7734 0.0286344 1.00567 138 118 101
1.77245 0.00850909 1.00675 138 118 101
1.77071 -0.0316346 1.00522 142 121 103
1.78964 -0.291579 1.00548 129 107 84
1.78997 -0.371991 1.00439 125 102 78
1.78999 -0.391024 1.0055 124 101 77
1.79068 -0.410753 1.00476 122 98 75
1.78982 -0.430756 1.0065 120 97 73
1.78942 -0.451238 1.0043 118 95 72
1.79149 -0.510659 1.00581 114 91 69
1.87081 -0.691593 1.10532 70 73 77
1.89214 -0.970672 1.14629 49 51 57
1.90794 -1.08998 1.16327 58 58 60
1.90814 -1.13129 1.16269 63 61 63
1.9088 -1.17098 1.16331 62 60 62
1.76964 0.428398 1.02572 162 151 133
1.75198 0.368435 1.0304 171 157 140
1.74982 0.349606 1.02989 190 177 160
1.75046 0.309922 1.02763 166 154 138
1.7483 0.248651 1.00302 126 110 100
1.74768 0.207899 1.00359 128 110 99
1.74917 0.148263 1.00417 130 112 98
1.77054 -0.0703619 1.02594 146 128 109
1.77053 -0.111115 1.02514 140 122 104
1.77062 -0.130866 1.02559 140 122 103
1.77057 -0.151587 1.0248 142 123 104
1.77072 -0.170484 1.02574 141 121 102
1.76959 -0.211245 1.02492 138 119 99
1.7698 -0.231155 1.02499 139 120 100
1.77049 -0.270801 1.02661 136 116 96
1.77042 -0.290859 1.02491 136 116 95
1.83032 -0.710695 1.0855 53 55 60
1.89106 -1.03042 1.16604 54 55 58
1.89196 -1.0912 1.16662 57 57 60
1.89179 -1.11075 1.16665 59 58 61
1.90751 -1.18978 1.18265 58 56 59
1.90798 -1.21071 1.18372 63 59 61
1.73045 0.448571 1.00701 184 171 155
1.74975 0.429272 1.04687 197 185 163
1.75045 0.3892 1.04681 170 158 141
1.75062 0.22879 1.02864 146 133 119
1.75287 0.208912 1.02783 136 122 110
1.7532 0.188699 1.02762 141 127 115
1.75213 0.169062 1.02585 129 113 101
1.74742 0.128535 1.02302 120 103 91
1.74864 0.110181 1.02528 126 109 98
1.74875 0.090007 1.02493 123 106 94
1.7476 0.0691053 1.02498 123 106 93
1.74828 0.0491996 1.024 121 103 90
1.74966 0.0277668 1.02642 129 111 99
1.75183 -0.0319182 1.02544 132 114 100
1.77059 -0.431094 1.02452 126 105 84
1.7717 -0.450882 1.02518 124 103 82
1.77036 -0.470398 1.02518 122 101 81
1.77023 -0.490859 1.02458 120 99 79
1.61429 -0.530772 0.941779 176 163 145
1.77102 -0.511068 1.02503 118 97 77
1.77107 -0.59101 1.02591 110 91 73
1.87114 -0.690243 1.18411 63 65 70
1.88503 -0.692082 1.20177 45 46 51
1.85185 -0.81038 1.14526 57 60 67
1.85259 -0.830614 1.14572 55 59 65
1.87255 -0.930984 1.16631 51 53 58
1.87222 -0.950747 1.16722 51 53 58
1.87135 -1.03083 1.16707 53 55 61
1.88755 -1.12997 1.18212 60 59 61
1.8889 -1.17088 1.18329 59 59 61
1.74831 0.426992 1.06141 208 197 178
2.31115 -0.748522 0.686615 50 52 55
1.74814 0.408917 1.06279 200 190 172
1.72903 0.368973 1.04761 224 213 193
1.72926 0.288916 1.04659 228 216 197
1.72904 0.228438 1.02686 165 152 139
1.72872 0.208634 1.02692 157 143 131
1.73009 0.168896 1.04632 218 206 187
1.73038 0.148934 1.04649 215 204 185
1.74942 0.0287412 1.04955 191 179 162
1.74902 0.00897208 1.04938 191 178 161
1.74907 -0.0113048 1.04955 189 177 160
1.749 -0.031275 1.05026 187 174 157
1.74881 -0.110809 1.04911 190 178 160
1.74882 -0.150722 1.04972 186 173 156
1.74845 -0.191073 1.04985 184 171 153
1.74871 -0.270889 1.04961 176 163 145
1.76948 -0.430599 1.04617 126 107 87
1.76797 -0.630395 1.04366 116 101 86
1.76789 -0.671557 1.04308 98 87 78
1.76953 -0.689985 1.04567 107 104 101
1.7717 -0.710384 1.04581 88 87 87
1.79137 -0.711837 1.08483 31 34 41
1.85233 -0.871101 1.16541 52 55 62
1.85192 -0.890463 1.16768 52 55 62
1.85105 -0.9101 1.16769 52 55 62
1.85287 -0.950493 1.16815 49 53 59
1.87103 -1.07101 1.18602 58 58 61
1.87146 -1.11067 1.18609 60 60 62
1.88868 -1.19017 1.20316 56 55 57
1.70946 0.447474 1.02637 218 203 181
1.73317 0.427132 1.06201 229 218 198
1.73311 0.389273 1.06238 225 214 193
1.72959 0.269026 1.04678 227 216 196
1.72973 0.229262 1.04632 225 213 194
1.7297 0.209017 1.0461 222 210 191
1.72992 0.188939 1.04608 220 209 189
1.73014 0.0093174 1.04585 202 190 172
1.74848 -0.350997 1.04943 170 157 138
1.74887 -0.390635 1.04906 165 151 132
1.7486 -0.410818 1.04888 164 150 131
1.74876 -0.471021 1.04885 159 145 126
1.74893 -0.490844 1.04846 158 145 126
1.74837 -0.510587 1.04828 156 143 125
1.74886 -0.571147 1.04785 150 137 119
1.76914 -0.710498 1.0659 88 86 85
1.85065 -0.690394 1.20401 58 60 65
1.86682 -0.692074 1.22236 51 53 58
1.83194 -0.771074 1.16418 52 58 65
1.8307 -0.791273 1.16462 52 57 65
1.83306 -0.810516 1.1648 53 58 65
1.83055 -0.830262 1.16551 52 56 64
1.83296 -0.849322 1.16521 52 56 64
1.85124 -0.851466 1.16631 51 54 61
1.85233 -0.970814 1.18736 54 56 61
1.85227 -0.990353 1.18692 53 55 60
1.85221 -1.05046 1.18855 57 58 64
1.86797 -1.15035 1.20312 57 56 59
1.86888 -1.17095 1.20309 58 57 60
1.67041 0.44741 1.00477 211 196 174
1.71216 0.428578 1.06284 229 220 206
1.73239 0.388981 1.08009 221 210 192
1.71195 0.308715 1.06297 229 220 206
1.71063 0.26931 1.06243 232 223 210
1.70963 0.247821 1.0636 230 220 207
1.70857 0.18875 1.06233 219 209 195
1.73524 0.129003 1.06033 215 203 184
1.73526 0.109342 1.0607 213 201 181
1.73549 0.0292752 1.06006 206 194 175
1.73519 -0.0107635 1.05981 203 190 171
1.73523 -0.0306396 1.06022 203 190 172
1.73491 -0.0708693 1.06124 200 187 170
1.73511 -0.0909323 1.06144 198 185 168
1.73476 -0.111483 1.06113 194 182 164
2.38887 -0.479618 0.669739 153 141 128
1.73501 -0.131509 1.06054 194 181 164
1.73408 -0.170949 1.06097 187 174 157
1.73414 -0.210308 1.06162 183 170 153
1.73376 -0.230344 1.06286 177 165 149
1.73241 -0.291369 1.06358 170 157 141
1.7324 -0.31115 1.06387 165 152 136
1.75206 -0.370462 1.06135 154 140 123
1.75273 -0.391012 1.06105 151 137 120
1.75246 -0.410762 1.06069 149 136 119
1.75359 -0.511144 1.05968 140 128 112
1.75384 -0.531209 1.05951 138 126 111
1.75372 -0.551201 1.05975 138 126 111
1.75352 -0.570812 1.05965 137 125 110
1.75253 -0.629725 1.06012 128 116 102
1.75298 -0.672172 1.06195 120 112 104
1.75244 -0.69109 1.06363 124 120 115
1.86516 -0.713 1.22288 41 44 47
1.83199 -0.950677 1.18732 51 55 62
1.85241 -1.07054 1.18791 58 59 64
1.85099 -1.13069 1.20545 60 59 62
1.7073 0.426229 1.08164 214 202 188
1.70987 0.149582 1.06238 218 208 194
1.71048 0.0685499 1.06441 217 207 194
1.70934 0.0304828 1.06516 214 204 190
1.71092 0.0103994 1.06478 211 201 188
1.71044 -0.011553 1.06654 207 197 183
1.7108 -0.0315387 1.0662 205 194 181
1.7325 -0.35088 1.06382 164 150 134
1.73258 -0.430872 1.06409 150 136 121
1.73168 -0.451088 1.06505 153 139 124
1.73159 -0.470726 1.06525 149 135 121
1.72926 -0.51162 1.06576 148 136 122
1.73071 -0.530777 1.06505 148 135 122
1.72925 -0.551098 1.06365 147 135 121
1.73009 -0.571699 1.06507 146 134 121
1.73099 -0.59017 1.06312 146 133 120
1.7327 -0.631159 1.06372 147 134 122
1.85098 -0.694765 1.23773 63 66 73
1.85058 -0.710635 1.22613 45 47 52
1.83259 -0.75074 1.18732 58 61 66
1.83044 -0.851456 1.18436 56 60 66
1.85062 -1.09092 1.20581 59 59 62
1.84853 -1.17094 1.22243 57 56 59
1.39736 0.470368 0.919466 200 196 187
1.69279 0.427 1.08347 176 165 155
1.69048 0.3296 1.08081 227 218 207
1.69558 0.24651 1.07904 230 219 205
1.69027 0.210409 1.07713 225 214 200
1.70499 0.0641525 1.07912 211 200 184
1.70505 0.0107979 1.0782 204 193 177
1.70868 -0.0709459 1.08038 202 191 177
1.70877 -0.128885 1.08312 200 188 175
1.70884 -0.150007 1.08402 193 181 168
1.70913 -0.212007 1.08251 190 178 165
1.71046 -0.268877 1.08119 189 176 160
1.70966 -0.289548 1.08136 186 173 159
1.70961 -0.309684 1.08137 183 169 155
1.72253 -0.450459 1.08221 150 136 123
1.72593 -0.47168 1.07848 147 134 121
1.72609 -0.489138 1.08034 148 135 122
1.72793 -0.509219 1.08208 144 130 117
1.72734 -0.550632 1.08128 147 134 120
1.73062 -0.670236 1.08579 128 123 120
1.73288 -0.692062 1.06609 136 133 129
1.73176 -0.710738 1.08402 93 96 96
1.8353 -0.694033 1.23945 51 55 59
1.81042 -0.750853 1.18703 46 50 56
1.81149 -0.890841 1.18568 45 48 55
1.81076 -0.93054 1.18882 42 45 52
1.83136 -1.09041 1.20821 62 63 67
1.83011 -1.11075 1.20808 62 63 66
1.83085 -1.13076 1.20774 63 63 66
1.83222 -1.15103 1.20679 63 62 67
1.69192 -0.00997734 1.07977 211 200 186
1.69126 -0.0312435 1.08032 209 198 185
1.70819 -0.39029 1.08148 165 151 137
1.71005 -0.412165 1.0821 160 146 133
1.71045 -0.451495 1.08336 154 140 127
1.71239 -0.472162 1.08545 153 140 126
1.71319 -0.568746 1.08332 153 140 127
1.71158 -0.590674 1.08341 154 141 129
1.71198 -0.611043 1.08375 162 150 139
1.71092 -0.632647 1.08574 166 154 144
1.71214 -0.671515 1.08481 143 136 131
1.73192 -0.69135 1.08625 112 113 114
1.74964 -0.711024 1.12387 39 43 49
1.83049 -0.712159 1.24088 47 50 55
1.8111 -0.750327 1.20688 52 55 59
1.79312 -0.770495 1.20453 42 46 53
1.79397 -0.809948 1.20332 41 45 53
1.79261 -0.830402 1.20348 38 42 50
1.81044 -0.911066 1.20794 47 50 55
1.81094 -1.01062 1.20685 48 50 56
1.8114 -1.03073 1.20698 41 42 48
1.81245 -1.05057 1.20664 43 45 50
1.81217 -1.07089 1.20579 41 43 48
1.81313 -1.09006 1.20678 45 46 51
1.75156 -0.331516 1.02516 131 114 97
1.81282 -1.11053 1.20626 42 42 47
1.83076 -1.1108 1.22366 62 61 64
1.83031 -1.17073 1.22459 61 61 64
1.46956 -0.911516 0.861843 191 192 193
1.71402 -0.615171 1.09914 155 143 132
1.71088 -0.669413 1.10699 136 131 127
1.71407 -0.710254 1.10578 117 114 111
2.0929 -1.25135 0.967143 53 53 55
1.79713 -0.691309 1.223 48 50 56
1.79586 -0.751211 1.2254 40 43 50
1.79187 -0.870403 1.20517 41 46 53
1.79273 -0.930998 1.20494 39 43 50
1.79141 -0.950829 1.20616 39 43 50
1.79208 -0.990262 1.20623 42 45 51
1.81313 -1.03089 1.22546 45 46 50
1.81355 -1.07021 1.22525 41 42 46
1.81432 -1.09053 1.22541 42 43 47
1.81276 -1.11066 1.22468 40 40 44
1.82943 -1.17132 1.24131 57 56 59
1.82823 -1.19052 1.24296 56 56 59
2.26749 -0.531057 0.772363 106 78 60
1.36987 -1.19089 0.847872 190 189 185
1.82953 -0.870575 1.22313 56 57 60
2.24763 -1.03125 0.80479 57 60 63
1.99359 0.287375 0.669274 138 117 103
2.07278 0.248054 0.605457 140 118 99
2.31094 -1.0309 0.744107 64 67 71
2.22996 -1.15117 0.824753 48 49 51
1.89101 0.108824 0.80568 139 116 97
1.29067 -0.832112 0.646648 142 146 146
1.71 -0.97335 0.646023 28 38 52
2.00751 0.393956 0.800145 108 91 72
1.74878 0.510223 0.964082 192 159 114
2.16982 -0.830651 0.904014 46 48 52
2.15142 -0.77034 0.867367 50 52 55
2.14907 -0.771167 0.883549 59 61 63
2.14987 -0.790655 0.885447 60 62 64
2.13086 -0.751473 0.866679 43 45 49
2.13231 -0.770644 0.886973 52 54 57
2.15077 -0.79167 0.905222 56 58 61
2.11269 -0.730999 0.888336 46 48 51
2.12965 -0.771549 0.904016 57 59 62
2.13142 -0.811198 0.924238 61 62 66
2.1427 -0.830848 0.936635 41 43 48
2.11152 -0.7305 0.906617 56 59 61
2.12998 -0.831677 0.944725 47 48 52
2.09197 -0.729734 0.907597 48 50 54
2.09136 -0.711097 0.925531 57 60 62
2.08788 -0.750786 0.944635 58 60 62
2.09109 -0.790555 0.945303 55 57 59
2.09069 -0.811358 0.944776 54 56 59
2.11037 -0.811277 0.967045 45 46 49
2.05162 -0.708657 0.905903 63 65 69
2.10921 -1.06898 1.0036 69 63 60
2.07085 -0.791803 0.964581 53 56 59
2.07062 -0.811056 0.965717 53 56 59
2.05172 -0.710667 0.96647 56 59 62
2.06974 -0.730423 0.987052 53 54 59
2.07112 -0.951165 1.00582 46 47 50
2.03243 -0.710568 0.965777 56 59 63
2.04943 -0.751267 0.985001 53 55 58
2.05179 -0.831417 0.985187 51 54 57
2.01088 -0.711629 0.963393 54 56 61
2.0286 -0.731123 1.00386 55 57 60
2.03103 -0.830828 1.00664 51 53 57
2.01161 -0.710547 1.00688 53 55 59
2.04753 -0.99125 1.04259 44 44 48
2.04834 -1.25001 1.06232 103 85 73
1.9908 -0.709552 0.985569 54 57 62
2.00895 -0.731168 1.02289 53 55 59
2.00905 -0.751425 1.02378 53 55 58
2.04822 -1.19473 1.07885 48 47 52
2.04983 -1.20467 1.08151 50 49 54
1.99348 -0.730333 1.0286 51 53 57
1.99366 -0.77075 1.02828 48 51 56
1.99208 -0.710361 1.02679 54 56 60
1.83387 -0.310981 0.90649 123 100 78
1.81067 0.128748 0.924723 133 112 95
2.00958 -0.951324 1.06395 47 47 51
2.01037 -1.01101 1.06487 52 52 55
1.95106 -0.709769 1.02601 58 62 67
1.97207 -0.710222 1.04691 55 57 61
1.91084 -0.707686 0.946438 33 34 37
1.99041 -1.23179 1.10465 60 57 58
1.9534 -0.730493 1.06831 50 52 57
1.95368 -0.750121 1.06802 49 52 57
1.96959 -1.19208 1.10442 63 62 63
1.93094 -0.731943 1.06532 50 53 59
1.89044 -0.707119 1.00527 36 37 42
1.93393 -0.750499 1.08829 51 54 59
1.94922 -1.19036 1.12419 62 61 62
1.93321 -0.870597 1.10786 49 51 55
1.93136 -1.0311 1.10724 48 50 55
1.93316 -1.05037 1.1082 49 51 56
1.93313 -1.13031 1.12727 58 57 59
1.88932 -0.707406 1.06513 56 59 64
1.89054 -0.709212 1.08663 58 62 67
2.12795 0.187501 0.623891 137 119 96
1.91326 -0.729579 1.10863 55 58 62
1.92906 -1.19118 1.14322 64 63 64
1.47069 0.449407 1.02529 114 101 85
1.81215 0.41031 0.987028 120 110 96
1.81225 0.268487 0.987141 129 111 92
1.81055 0.248623 0.984905 133 115 96
1.8145 0.209349 0.988486 131 113 93
1.81288 0.10806 0.98631 134 115 96
1.81129 0.0883089 0.985028 137 118 97
1.81204 0.0283192 0.985717 135 117 95
1.8103 0.0107015 0.985553 137 118 96
1.86979 -0.707131 1.06556 51 53 58
1.89067 -0.730265 1.10594 58 62 69
1.89126 -0.751213 1.10548 51 55 62
1.91359 -1.05081 1.12787 52 53 58
1.91177 -1.13067 1.14754 55 55 58
1.91276 -1.15065 1.14719 60 59 60
1.91293 -1.19092 1.14826 61 60 62
1.78854 -0.0506395 0.984682 139 117 96
1.78909 -0.0714939 0.984392 138 115 94
1.85005 -0.708056 1.08446 50 52 57
1.87046 -0.708472 1.10628 61 65 71
1.87143 -0.731021 1.10638 59 63 70
1.87207 -0.749808 1.10704 52 57 64
1.87125 -0.790653 1.10548 53 57 65
1.89281 -0.951398 1.12624 50 52 59
1.89292 -0.990549 1.12912 53 54 61
1.89173 -1.01047 1.12888 54 55 62
1.89276 -1.03009 1.12559 55 57 63
1.89419 -1.07095 1.14755 53 54 59
1.59303 -0.251039 0.923411 191 180 165
1.89351 -1.09113 1.14791 62 60 62
1.90907 -1.21088 1.16342 61 60 62
1.78943 0.428359 1.00386 144 133 116
1.79217 0.289051 1.00668 132 114 95
1.79088 0.248667 1.00633 134 116 97
1.78998 0.209644 1.0068 136 118 99
1.79231 0.189222 1.00715 134 117 98
1.79059 0.169249 1.00638 135 117 98
1.79031 0.149064 1.00531 136 118 99
1.79047 0.128785 1.00583 137 119 99
1.79108 0.108831 1.00646 138 119 99
1.7889 0.049333 1.00466 138 119 99
1.79177 0.00852058 1.00601 139 120 98
1.93109 -0.090967 0.844645 143 123 96
1.7902 -0.631285 1.00509 99 79 62
1.81035 -0.708664 1.02611 79 80 84
1.87105 -0.751108 1.12569 55 59 66
2.02837 0.28962 0.703059 158 139 118
1.87229 -0.969783 1.14717 51 53 60
1.89425 -1.15122 1.14737 65 62 65
1.89263 -1.17059 1.16721 61 60 62
1.89215 -1.21058 1.16714 66 64 65
1.77176 0.388797 1.02724 133 119 103
1.77053 0.368707 1.02712 131 115 100
1.77013 0.268108 1.02578 137 120 103
1.7703 0.248697 1.02646 140 123 106
1.77031 0.189461 1.02824 138 121 104
1.7717 0.148214 1.02596 140 122 105
1.87239 -0.95024 1.14692 51 54 61
1.87502 -1.13092 1.16906 59 59 63
1.77111 0.12884 1.02473 144 126 107
1.77132 0.0893721 1.02728 143 124 105
1.77167 0.0696044 1.02693 141 123 104
1.77073 -0.631172 1.02467 105 88 72
1.77021 -0.670287 1.02524 103 92 82
1.77687 -0.707583 1.02974 70 63 60
1.79126 -0.709154 1.06554 52 55 61
1.85215 -0.870938 1.14559 51 55 63
1.85167 -0.931276 1.1462 50 54 62
1.85138 -0.949906 1.14657 50 54 61
1.85334 -0.99117 1.16676 51 53 60
1.87287 -1.0512 1.16837 53 55 60
1.61192 -1.29314 0.985863 58 60 66
1.87472 -1.15043 1.16982 60 60 64
1.74939 0.448735 1.04657 215 201 180
1.75122 0.369439 1.04811 166 153 137
1.75063 0.329352 1.04722 181 169 151
1.75057 0.289178 1.04792 189 176 157
1.75068 0.229401 1.0479 187 176 157
1.74853 0.189113 1.04912 191 179 161
1.75074 0.149191 1.04865 186 174 156
1.74991 0.089304 1.04903 189 177 160
1.8303 -0.751274 1.14587 53 59 66
1.83207 -0.791556 1.1432 56 59 67
1.8309 -0.810781 1.1455 57 61 68
2.13193 -0.791977 0.865523 41 44 47
1.83105 -0.830571 1.14458 55 58 65
1.83192 -0.851615 1.14461 52 56 64
1.85302 -1.05105 1.16465 56 57 65
1.85204 -1.13047 1.16423 61 61 66
1.85293 -1.13168 1.18846 61 61 65
2.05107 0.0884412 0.665333 128 108 87
1.85457 -1.15052 1.18887 60 60 63
1.85345 -1.17111 1.18978 61 60 64
1.4499 -1.17059 0.853286 183 183 182
1.87175 -1.1707 1.1869 61 60 63
1.74859 0.269017 1.06223 209 198 180
1.74961 -0.690143 1.04764 145 135 122
1.82952 -0.930252 1.16437 51 54 62
1.83073 -0.951387 1.16365 51 54 62
1.83167 -0.970561 1.16603 50 53 61
1.83023 -1.03047 1.16388 54 56 63
1.83136 -1.07073 1.18996 66 66 72
1.85247 -1.11111 1.18937 61 61 65
1.73188 0.444743 1.06089 209 195 175
1.73293 0.370095 1.08043 220 209 192
1.73364 0.349357 1.06246 225 214 195
1.7344 0.308941 1.06247 224 213 195
1.73506 0.289337 1.06146 225 215 196
1.7357 0.209459 1.06081 216 206 187
1.7353 0.189617 1.06082 214 203 184
1.75247 -0.711572 1.06254 116 113 108
1.79179 -0.711205 1.14547 32 35 41
1.81008 -0.729527 1.16453 44 48 56
1.81206 -0.810488 1.16536 39 43 50
1.81033 -0.829557 1.1653 30 34 41
1.81024 -0.850595 1.16503 37 41 49
1.831 -1.05136 1.18894 61 62 68
1.83031 -1.11158 1.19 66 66 71
1.83329 -1.12942 1.19081 66 65 69
1.69248 0.465178 1.02419 211 197 180
1.71217 0.446997 1.06685 226 218 209
1.73272 0.351044 1.07918 227 216 200
1.99252 -0.489681 0.707894 114 91 70
2.13429 0.46799 0.60955 107 95 82
1.73256 0.329997 1.07807 226 215 196
1.73163 -0.329539 1.07897 164 150 137
1.72555 -0.371485 1.07762 156 142 129
1.73251 -0.610712 1.06337 144 131 118
1.77163 -0.70495 1.12901 18 23 30
1.79107 -0.771433 1.16739 52 57 65
1.79384 -0.810483 1.16627 48 52 60
1.81077 -0.991492 1.1847 37 39 46
1.81111 -1.07102 1.18635 40 41 47
1.78937 -0.831105 1.18458 38 42 51
1.79052 -0.870854 1.18584 34 38 46
1.78923 -0.890488 1.18577 37 41 48
1.78996 -0.909887 1.1872 31 34 42
1.71235 -0.51058 1.08129 152 139 125
1.71121 -0.532215 1.08327 152 138 125
1.71439 -0.590975 1.0966 142 131 121
1.7146 -0.631221 1.10042 164 152 142
1.75424 -0.711701 1.16416 85 86 89
1.77025 -0.731148 1.16691 58 63 70
1.77222 -0.729998 1.18811 75 78 83
1.77201 -0.770138 1.185 63 66 71
1.77053 -0.789851 1.18785 64 68 74
1.77324 -0.831368 1.18586 49 54 60
1.77248 -0.851067 1.18418 49 53 59
1.79084 -1.01093 1.20558 42 45 52
1.79159 -1.0315 1.20421 45 48 55
1.79319 -1.07055 1.20586 45 47 55
1.81286 -1.19064 1.2441 42 43 47
1.75589 -0.0908977 0.966116 131 112 99
1.73607 -0.710856 1.16222 136 135 135
2.05074 -0.704216 0.745276 44 42 42
1.75237 -0.751457 1.18201 112 113 111
1.75461 -0.769969 1.18415 89 91 94
1.77083 -0.891346 1.18516 46 49 54
1.77103 -0.951601 1.2024 68 71 74
1.77064 -0.971022 1.20276 63 65 68
1.77309 -0.988215 1.20385 75 77 80
1.79401 -1.13114 1.22157 26 28 34
1.79419 -1.1524 1.22129 35 36 43
1.79495 -1.17083 1.22338 31 32 39
1.79334 -1.19042 1.22511 31 33 39
1.80007 -1.19931 1.23714 37 39 48
1.63735 0.327666 1.05571 172 167 159
1.65058 0.287531 1.06274 204 196 184
1.67023 -0.0511093 1.08337 204 195 182
1.66931 -0.0700855 1.08485 198 190 176
1.6722 -0.390069 1.08591 163 151 141
1.67005 -0.429416 1.08587 163 152 140
1.69212 -0.652843 1.10284 175 164 157
1.69166 -0.690885 1.10726 167 160 155
1.69775 -0.689674 1.11883 156 149 147
1.71648 -0.71517 1.14326 168 163 160
1.7517 -0.810509 1.18423 125 124 124
1.75372 -0.829965 1.18645 96 97 96
1.75303 -0.870937 1.18556 97 98 98
1.7535 -0.931683 1.18722 87 88 88
1.75335 -0.951601 1.18707 86 86 86
1.7536 -0.971792 1.18564 91 91 92
1.63204 0.0888296 1.04549 218 210 197
1.65575 -0.429934 1.0873 168 161 150
1.6544 -1.1768 1.06695 40 40 44
1.65319 -1.19269 1.08513 32 33 38
1.67125 -1.19119 1.08538 33 33 38
2.03214 -0.250303 0.687629 129 105 79
1.68769 -0.510402 1.08174 155 141 126
1.59116 0.455561 1.05661 146 133 112
1.78999 -0.692374 1.0645 59 61 66
1.57024 0.4673 1.02442 106 94 78
1.57153 0.450659 1.04456 104 94 81
1.55093 0.468557 1.0444 151 136 115
1.55153 0.450073 1.04528 103 92 78
2.3669 -1.1969 0.71838 40 40 47
2.26877 -1.2716 0.805915 53 53 56
1.52956 0.468707 1.02543 152 137 115
1.5306 0.448687 1.04583 112 100 84
1.5109 0.4686 1.02647 166 150 127
1.60084 0.353442 0.893458 141 135 129
2.17394 -0.591882 0.664989 88 69 57
2.08958 0.149214 0.688769 128 110 90
2.0697 0.690134 0.684968 230 205 161
1.65351 -0.150611 0.982487 205 194 177
2.04697 -1.09515 1.06658 101 88 81
2.27889 -0.790409 0.685659 36 35 38
1.61288 0.432255 0.962042 105 98 88
2.00945 -0.111038 0.724145 135 111 87
1.95095 0.66908 0.684471 215 186 139
2.18748 0.611503 0.696232 127 120 103
2.13085 -0.791804 0.959446 42 44 53
2.10764 -0.75148 0.964241 48 49 53
2.10922 -1.131 0.982366 49 47 50
2.07057 -0.710793 0.946047 56 59 61
2.09029 -0.811014 0.985433 45 46 50
2.09039 -0.830279 0.985214 47 48 52
2.08458 -0.850958 1.00059 42 43 47
2.07146 -0.711539 0.987964 56 57 61
2.08318 -0.872631 1.00225 40 40 43
2.08705 -0.911831 1.00154 43 43 47
2.08472 -0.993857 1.01907 42 41 46
2.06903 -0.731435 1.00416 45 46 49
2.05127 -0.710774 1.00761 56 57 61
2.0488 -0.750262 1.0068 54 55 59
2.06301 -1.0536 1.03964 46 44 48
2.03072 -0.811296 1.04629 44 44 48
2.03265 -0.850398 1.04539 44 45 49
2.02965 -0.970648 1.06284 42 42 46
2.02828 -1.0107 1.06282 48 48 53
2.02694 -1.07046 1.06223 49 49 52
2.02897 -1.25154 1.06553 68 63 62
2.00779 -0.711988 1.02278 56 58 62
2.01071 -0.730957 1.04418 53 55 59
2.00866 -0.910343 1.06568 44 45 49
1.80992 -0.430747 0.965151 119 94 71
1.98878 -0.711468 1.04308 55 57 61
2.01124 -0.830977 1.06718 41 41 45
2.01214 -0.852183 1.06616 42 42 46
2.01065 -0.870433 1.06542 43 43 47
2.00743 -1.02977 1.0817 49 48 52
2.0066 -1.05205 1.08214 58 55 56
2.0073 -1.07067 1.0808 50 49 52
2.00774 -1.09022 1.08162 52 51 54
1.95162 -0.707286 1.00503 65 67 71
1.99134 -0.750285 1.0631 54 56 60
1.98979 -0.971952 1.08367 49 49 52
1.98928 -0.991216 1.08457 51 51 54
2.00208 -1.17726 1.09609 48 47 52
1.96813 -0.730641 1.06355 52 54 58
1.98853 -0.910183 1.08408 46 46 49
1.98973 -0.93037 1.08515 45 45 48
1.98733 -1.11128 1.10206 62 58 59
1.91023 -0.706772 0.985123 32 32 36
1.9691 -0.730385 1.08474 55 57 61
1.97017 -0.911477 1.08491 50 51 54
1.97027 -0.951173 1.10456 48 47 50
1.97095 -0.991596 1.10513 49 49 52
1.9706 -1.01105 1.10457 51 51 54
1.8314 0.428449 0.882814 138 124 117
1.97015 -1.05095 1.10532 56 55 58
1.89106 -0.708891 0.985313 28 29 33
1.94865 -0.711 1.08358 54 57 61
1.94858 -0.73105 1.08376 52 54 58
1.94844 -0.83061 1.10474 50 51 54
1.95012 -0.870812 1.10313 50 51 54
1.94906 -0.890657 1.10377 50 51 54
1.95043 -0.950239 1.10491 51 52 55
1.59187 0.16922 0.924158 199 190 174
1.58323 -1.28106 0.858447 59 59 59
1.93288 -0.710605 1.08718 57 60 64
1.94962 -0.771228 1.104 51 53 58
1.94809 -0.790743 1.10342 50 51 55
1.9503 -1.05065 1.12404 55 55 58
1.93049 -0.791216 1.10574 50 52 56
1.93261 -0.850715 1.10731 49 51 55
1.92875 -0.891209 1.12409 52 52 55
1.92991 -0.97144 1.12501 51 52 55
1.93234 -1.21058 1.1291 60 60 62
1.91212 -0.810702 1.12605 50 52 56
1.91169 -0.830516 1.12741 50 52 55
1.91107 -0.990536 1.14526 52 53 56
1.9136 -1.21114 1.14767 62 61 63
1.89275 -0.709814 1.12781 57 60 65
1.89074 -0.791179 1.14666 51 53 57
1.89332 -0.850742 1.14717 51 53 57
1.8932 -0.870676 1.14744 50 52 56
1.89272 -0.890951 1.14795 50 52 56
1.89119 -1.19101 1.14646 70 67 67
1.81151 -0.707787 1.0468 53 55 60
1.87136 -0.710226 1.12633 57 61 67
1.87186 -0.810891 1.14575 51 55 61
1.87145 -0.851289 1.14624 51 54 61
1.80252 0.369961 1.01891 114 98 81
1.85162 -0.691027 1.12616 74 77 81
1.69015 -0.811843 1.04009 154 140 125
1.87272 -0.770732 1.1464 52 55 60
1.8729 -0.870376 1.16741 51 53 57
1.87211 -0.910637 1.16777 51 53 57
1.87427 -1.19041 1.16872 72 68 70
1.78609 0.386465 1.04122 129 114 99
1.76996 -0.130613 1.00427 134 113 93
1.85245 -0.730891 1.16742 54 58 62
1.85347 -0.750624 1.16818 53 56 60
1.85235 -0.790645 1.16665 52 56 62
1.85235 -0.811291 1.1668 52 56 63
1.85078 -0.830158 1.16639 52 56 63
1.85214 -1.19198 1.16218 65 65 70
1.76965 0.470383 1.02388 217 200 175
1.76891 0.268632 1.04393 148 132 113
1.76945 0.249536 1.04562 146 131 113
1.75133 -0.051053 1.02618 134 117 101
1.83115 -0.710446 1.14455 68 71 78
1.80877 -0.71014 1.16563 53 57 62
1.83235 -0.710031 1.16747 66 70 76
1.83226 -0.770148 1.18708 57 60 66
1.83155 -0.790936 1.18739 56 60 66
1.82714 -1.15063 1.18083 66 66 71
1.8275 -1.18895 1.18799 61 61 66
1.74793 0.249105 1.06247 206 196 178
1.73034 -0.0507395 1.04551 200 188 170
1.73053 -0.090955 1.04538 199 187 168
1.59364 -1.19238 0.826121 30 36 45
1.73065 -0.110869 1.04533 197 184 166
1.75153 -0.290917 1.0614 162 148 132
1.81116 -1.0915 1.18498 31 32 40
1.81219 -1.11136 1.1871 33 34 40
1.81089 -1.1305 1.18593 29 30 36
1.45167 -0.689205 0.707452 42 48 55
1.75078 0.369135 1.08217 195 188 175
1.75135 0.349225 1.08263 197 190 177
1.74916 0.308413 1.08281 208 202 189
1.81127 -1.1906 1.20396 37 38 44
1.78341 -0.968791 0.651061 34 44 59
1.71264 -0.0898563 1.06578 200 189 176
1.72121 -0.130684 1.07713 190 179 163
1.72944 -0.211359 1.07795 184 172 158
1.73085 -0.692152 1.10298 74 76 80
1.79021 -1.14959 1.18695 45 46 52
1.79444 -1.17133 1.20551 41 42 48
1.79455 -1.19353 1.20246 36 36 43
1.79147 -1.21225 1.20006 45 46 53
1.77202 -0.711335 1.1847 65 70 74
1.77159 -0.851154 1.20251 58 62 68
1.77416 -0.87218 1.20389 58 62 66
1.7731 -0.890909 1.20368 53 58 64
1.77342 -1.03225 1.18677 56 58 64
1.7686 -1.09077 1.18605 44 47 53
1.77 -1.14841 1.18139 37 40 48
1.76963 -1.21037 1.18302 28 29 36
1.68914 0.0837774 1.08059 212 201 186
1.68989 0.0321286 1.07924 210 201 187
1.69099 -0.171084 1.08432 197 186 171
1.6893 -0.231859 1.08463 194 182 166
1.69115 -0.270246 1.08387 189 177 161
1.69139 -0.289683 1.08281 191 178 163
1.68929 -0.310324 1.08323 187 174 159
1.6914 -0.409903 1.08515 167 154 140
1.69076 -0.493542 1.08181 153 139 125
1.68977 -0.530846 1.08357 151 138 124
1.69226 -0.55099 1.08185 158 144 130
1.68995 -0.592793 1.08338 161 148 136
1.68789 -0.611556 1.08375 165 153 142
1.69167 -0.671671 1.08394 157 150 143
1.75397 -1.04784 1.18042 79 81 82
1.74979 -1.07196 1.16361 57 58 63
1.73417 -1.09207 1.16414 57 57 61
1.73372 -1.11185 1.1645 50 51 55
1.73467 -1.13159 1.16548 46 46 51
1.73239 -1.15146 1.16515 35 35 42
1.73404 -1.19095 1.16189 26 27 34
1.73496 -1.2119 1.16234 22 23 30
1.67244 0.329588 1.06686 216 208 197
1.67167 0.308511 1.06774 219 212 200
1.67174 -0.132219 1.0836 199 190 177
1.67276 -0.170444 1.08413 196 186 171
1.66851 -0.271546 1.06603 193 182 168
1.67062 -0.451521 1.08442 160 150 138
1.67014 -0.509441 1.08131 157 144 130
1.67101 -0.551465 1.08202 158 144 132
1.6736 -0.590086 1.08087 162 149 137
1.66976 -0.651085 1.08124 174 163 153
1.66901 -0.668568 1.08182 181 172 164
1.67236 -0.687219 1.08715 175 169 166
1.70698 -0.748456 1.13815 160 155 152
1.6114 -1.27043 1.00592 45 45 49
1.63231 0.250235 1.04647 212 203 191
1.65236 0.229875 1.06188 217 208 195
1.64924 0.209967 1.06105 217 209 196
1.65132 0.168247 1.06118 220 211 197
1.65216 0.146975 1.0601 220 211 198
1.65261 0.130567 1.06219 219 211 197
1.65441 0.0895455 1.06311 218 209 196
1.65133 0.069312 1.06246 214 207 193
1.6366 0.00686069 1.0597 186 185 173
1.63613 -0.0141295 1.05658 190 185 172
1.63513 -0.0667021 1.05577 171 166 154
2.35071 -0.650272 0.687615 111 83 63
1.63444 -0.117656 1.05801 175 169 156
1.63871 -0.168665 1.0587 163 157 145
1.64067 -0.214727 1.06575 151 146 134
1.63658 -0.232176 1.05984 152 147 135
1.63791 -0.251614 1.05909 173 166 152
1.63339 -0.272111 1.04772 193 185 171
1.7311 0.524843 0.983252 214 191 155
2.11151 -0.659644 0.820979 22 21 24
2.07007 -0.333909 0.738851 114 96 81
1.95098 -0.150926 0.824847 141 121 94
1.87934 0.507456 0.8135 197 184 169
2.16886 0.530006 0.68415 140 123 99
2.09525 0.348232 0.548114 136 117 104
1.37138 -0.990115 0.80204 194 194 192
2.07266 -0.990618 0.947829 40 43 46
2.08899 -0.658639 0.82459 22 21 23
2.12764 -0.651444 0.622828 84 62 43
1.86921 0.408049 0.943883 110 99 84
1.75138 -1.1299 1.10998 55 58 62
2.02948 0.687367 0.687451 221 195 151
1.72673 -0.914251 0.610124 103 106 107
1.69057 -1.23079 1.02474 33 36 42
1.37379 -0.871038 0.840034 219 219 220
2.06641 -1.17188 1.05764 44 44 51
2.03338 -0.750738 0.988068 49 51 55
2.18878 -0.570088 0.544033 88 66 46
2.01376 -0.771023 1.00841 48 51 55
1.46944 -0.693703 0.66545 45 50 53
2.15539 -0.551589 0.681808 83 68 59
1.96978 -0.730819 1.02444 50 53 59
2.00721 -1.14959 1.10149 94 81 78
2.02997 -0.511668 0.665605 103 79 60
1.95419 -0.730186 1.02735 52 55 61
1.96703 -1.09068 1.12188 50 49 52
1.96563 -1.04984 1.12082 51 50 53
1.91139 -0.707339 1.04485 59 62 66
1.9499 -0.990887 1.12422 50 50 53
1.94788 -1.10992 1.14187 56 53 54
1.55259 -0.809522 0.928561 163 160 155
2.05366 -0.271748 0.746086 117 99 81
1.89327 -0.730821 1.08827 56 60 67
1.91065 -0.93106 1.14437 53 53 56
1.89041 -0.990736 1.16565 53 54 57
1.91084 0.209464 0.786236 142 119 99
1.8891 -0.91103 1.16422 53 54 56
1.88853 -1.07106 1.1837 57 56 59
2.06576 0.527687 0.620367 148 132 119
1.87161 -1.03131 1.18557 56 56 60
1.87169 -1.15059 1.1867 60 59 62
1.78465 -0.653015 1.04407 79 65 57
1.79007 -0.676072 1.04597 83 81 82
1.79166 -0.692186 1.04574 69 70 73
1.79068 -0.710011 1.04627 87 89 92
1.85132 -0.73166 1.14461 53 58 65
1.85315 -0.931405 1.18783 54 56 60
1.85345 -0.951058 1.18914 55 56 61
1.86778 -1.1114 1.20326 57 56 59
1.85259 -0.871241 1.18815 54 55 59
1.85025 -1.05126 1.20611 58 58 61
1.76729 -0.571156 1.06481 118 110 100
1.76727 -0.590627 1.06492 117 109 99
1.76801 -0.630669 1.06527 112 104 95
1.7703 -0.691174 1.08416 76 78 83
1.83232 -0.970574 1.20716 59 60 64
1.77065 -0.712618 1.10298 25 30 38
1.83286 -0.830988 1.20796 56 58 62
1.83251 -0.850943 1.2086 57 59 63
1.83286 -0.911112 1.20882 58 60 64
1.83189 -0.93111 1.20817 59 60 64
1.80973 -0.849831 1.20686 45 48 53
1.81241 -1.15073 1.2075 38 39 44
1.71432 -0.0706667 1.04138 204 192 176
1.71429 -0.0907565 1.04171 205 193 176
1.7147 -0.13137 1.06438 200 189 177
1.71128 -0.171189 1.06354 199 188 174
1.71314 -0.212488 1.06708 196 185 170
1.71325 -0.23232 1.0665 194 182 168
1.71441 -0.291083 1.06654 186 173 159
1.71161 -0.370366 1.06466 180 168 153
1.71256 -0.410345 1.06513 170 157 143
1.71076 -0.430237 1.06569 166 153 139
1.71302 -0.449342 1.06619 162 149 135
1.7115 -0.469587 1.06454 160 148 133
1.7124 -0.691119 1.08695 116 114 112
1.7713 -0.751053 1.16839 50 56 64
1.77673 -1.13392 1.20285 41 43 50
1.7789 -1.15452 1.19948 50 52 61
1.77678 -1.17265 1.19946 46 46 54
1.69209 -0.17073 1.04554 206 196 182
1.69026 -0.190126 1.04647 206 195 181
2.15001 -1.31123 0.92426 61 61 62
1.69073 -0.212037 1.04803 203 192 178
1.69212 -0.272013 1.06091 196 184 169
1.69096 -0.291187 1.06078 194 181 167
1.69315 -0.310706 1.06206 190 178 164
1.69016 -0.331325 1.06408 187 174 160
1.69208 -0.370598 1.06213 177 165 150
1.95054 0.647864 0.665379 194 162 112
1.71024 -0.390667 1.06417 173 160 146
1.69281 -0.409857 1.06422 168 155 141
1.6911 -0.47069 1.06389 159 146 132
1.69356 -0.551187 1.06655 160 147 133
1.69156 -0.590394 1.06652 163 150 136
1.69178 -0.610769 1.06768 166 154 140
1.69341 -0.688847 1.0645 145 137 130
1.71343 -0.710298 1.08599 144 137 127
1.71402 -0.730576 1.10524 127 123 117
2.33039 -0.689371 0.743371 72 66 66
1.73296 -0.750095 1.14427 81 82 85
1.74837 -0.750368 1.16436 95 96 99
1.74983 -0.771757 1.16302 66 70 75
1.61337 -0.913308 0.976792 134 128 124
1.67228 -0.350131 1.06167 181 169 155
1.67197 -0.388809 1.06152 171 158 144
1.67345 -0.431007 1.06316 161 149 135
1.67128 -0.451502 1.06448 161 148 134
1.67091 -0.468924 1.0629 160 146 132
1.6696 -0.53203 1.06487 155 142 128
1.67191 -0.569068 1.0639 158 146 132
1.67047 -0.6514 1.06704 181 172 162
1.71412 -0.831052 1.12442 137 131 123
1.61082 -0.0723344 1.00797 208 202 188
2.031 0.549435 0.72498 222 193 144
2.19053 0.0292495 0.524428 126 106 85
2.23175 -1.09051 0.805252 40 41 44
1.76967 -1.05108 1.12445 16 18 26
2.03797 0.171985 0.607377 135 113 96
2.33166 -0.811294 0.725619 60 63 67
2.11382 0.109678 0.566208 144 120 97
1.7707 0.448351 0.94465 139 129 126
2.13098 -0.590363 0.66068 95 77 65
2.31304 -0.479454 0.730932 123 101 81
1.86334 -1.05027 1.23911 58 56 61
1.66608 -0.92938 0.702874 33 44 58
1.89332 -0.631679 0.846221 96 74 55
1.6916 0.368808 1.06661 239 231 219
1.76717 -1.15148 1.00646 124 113 100
2.0662 -0.5299 0.739938 112 93 77
1.6306 -1.02992 0.743711 107 114 121
1.28586 -1.03121 0.706016 181 179 175
2.1901 0.430584 0.566293 94 85 77
1.88949 0.288483 0.806444 145 124 106
2.24987 -1.05179 0.804291 56 59 62
1.82783 -1.11184 1.12543 33 33 39
2.03054 -0.710382 1.02492 56 58 62
2.03166 -0.771323 1.04536 44 45 49
2.01109 -0.990228 1.02712 43 45 49
1.99078 -1.01076 1.04555 44 46 50
1.99137 -1.03045 1.04623 45 47 51
1.99169 -1.05104 1.04717 45 47 51
1.99274 -1.07045 1.04746 46 48 51
1.99339 -1.11106 1.04742 47 48 50
1.98961 -0.711016 1.06444 56 57 63
1.97154 -1.05007 1.04752 54 55 59
1.97177 -1.10861 1.04823 89 79 74
1.95165 -1.07139 1.06669 57 58 63
1.95236 -1.12836 1.06422 55 54 59
1.95212 -1.01102 1.06633 53 55 60
1.93446 -1.10711 1.07504 53 53 58
1.91368 -1.07055 1.09067 54 55 61
1.92866 -0.770751 1.12187 50 52 56
1.89117 -0.692488 1.08538 68 70 75
1.93299 -0.749965 1.14697 39 40 44
1.89181 -0.689173 1.10573 79 82 86
1.90827 -0.751202 1.14282 50 52 56
1.90699 -0.771463 1.14332 50 51 55
1.90762 -0.791374 1.14338 50 51 54
1.90871 -0.811498 1.1431 50 51 54
1.88757 -0.751219 1.16185 50 51 55
1.86924 -1.01164 1.12215 52 54 60
1.87032 -1.05063 1.12506 55 57 63
1.33034 -0.809878 0.744022 206 206 205
1.87171 -0.690638 1.14632 77 80 84
1.88822 -0.791487 1.1624 50 51 54
1.8726 -0.830599 1.16713 52 54 58
1.85397 -1.08964 1.1307 71 68 71
1.83041 -0.692923 1.08622 45 48 52
1.85157 -0.689908 1.14574 86 89 94
1.86664 -0.730923 1.1818 52 54 58
1.87175 -0.790656 1.16661 52 53 57
1.84911 -1.03123 1.14403 56 58 65
1.83005 -1.05112 1.14429 48 49 56
1.8276 -1.13131 1.12407 26 27 33
1.86655 -0.751 1.18215 49 50 54
1.83024 -1.07146 1.14541 56 57 63
1.81081 -1.11054 1.12636 17 18 26
1.80883 -1.20928 1.12831 15 17 24
1.8497 -0.710821 1.1849 55 57 61
1.84702 -0.731109 1.20222 50 52 57
1.81035 -1.05198 1.14547 32 34 41
1.81096 -1.07215 1.14681 31 32 40
1.80912 -1.11145 1.14651 34 36 44
1.80887 -1.13105 1.14698 30 32 39
1.81193 -0.69117 1.16596 68 70 75
1.8314 -0.710609 1.1859 68 71 75
1.83133 -0.77097 1.20677 56 59 63
1.83191 -0.790825 1.20689 56 58 62
1.81157 -0.970747 1.1645 39 42 49
1.8116 -0.990948 1.16464 35 38 45
1.81152 -1.05086 1.16276 40 42 49
1.79077 -1.0706 1.16338 40 42 49
1.7906 -1.2121 1.14796 18 19 25
1.92168 -0.832418 1.1785 41 40 43
1.83136 -0.750855 1.20642 56 58 62
1.79144 -1.01112 1.18553 36 39 46
1.78897 -1.05084 1.16391 43 45 52
1.76991 -1.11227 1.16361 51 52 58
1.77017 -1.19058 1.14899 18 19 25
1.77309 -0.690487 1.16567 63 67 72
1.79468 -0.691979 1.2078 36 38 45
1.81104 -0.750994 1.22567 60 62 66
1.81054 -0.790538 1.20721 49 52 57
1.77142 -1.03059 1.16405 33 37 44
1.75081 -1.11114 1.14424 41 43 49
1.44998 -0.749868 0.706257 50 58 69
1.75074 -1.13126 1.14546 43 44 50
2.09029 -0.210608 0.704547 120 102 83
1.79333 -0.710495 1.20715 29 33 40
1.79493 -0.770721 1.22544 36 39 46
1.77286 -0.930587 1.1869 44 48 53
1.77019 -0.950641 1.18375 46 50 56
1.75154 -1.03075 1.1621 50 53 58
1.71329 0.369921 1.06216 223 213 196
1.77089 -0.732877 1.20705 81 84 87
1.77021 -0.77041 1.20452 65 68 74
1.71532 -1.02844 1.12685 108 101 94
1.71153 0.408717 1.064 227 218 201
1.69224 0.328569 1.06645 240 232 219
1.85032 0.589995 0.625822 201 173 134
1.69209 0.309899 1.06622 239 231 218
1.69105 0.129584 1.06377 227 217 203
1.69127 0.0893117 1.06238 224 214 199
1.69187 0.427734 1.06582 230 223 213
1.67275 0.0895849 1.06341 224 214 200
1.69419 0.366437 1.0784 236 227 214
1.67278 0.409746 1.06197 197 191 187
2.11293 -1.21159 0.946999 53 53 54
2.09219 -0.352756 0.687617 123 104 85
1.42807 0.468138 0.967441 161 146 122
2.13453 -0.851361 0.851533 44 47 50
1.92997 -0.519382 0.898023 94 73 54
1.40945 -0.91052 0.829471 208 209 209
1.99149 -0.0294563 0.803506 135 118 100
2.07177 -1.0507 0.96635 42 44 47
1.63546 -0.150699 0.979617 215 203 188
2.30743 -1.07109 0.745075 62 66 69
1.95876 -0.492514 0.732513 116 92 69
1.93313 -0.510751 0.784335 112 87 65
2.15786 -0.595723 0.740038 100 76 59
2.24826 -0.530262 0.765583 106 77 60
2.13041 -0.63069 0.585076 82 61 42
2.20361 -0.623179 0.753025 39 37 40
1.67157 -0.57166 1.02407 166 153 137
1.46949 -0.716077 0.567518 96 101 100
2.01168 -0.75149 0.966567 48 52 57
1.46989 -0.99097 0.846427 198 200 201
2.04902 -1.25138 1.04271 63 61 61
2.35966 -0.840106 0.633669 48 51 54
2.00961 -1.2306 1.06571 60 60 62
1.99292 -1.1915 1.06771 53 54 56
1.99485 -1.25032 1.06949 57 57 58
1.95147 -0.689297 1.04636 73 75 79
1.95216 -1.15117 1.10719 54 54 56
1.93392 -1.07085 1.10691 52 53 57
1.91449 -1.11109 1.12748 53 53 57
1.91382 -1.13045 1.12872 62 59 59
1.91085 -1.17147 1.12678 63 62 65
1.91444 -1.19162 1.12711 73 68 68
1.86999 -1.071 1.14432 76 73 75
1.87078 -1.11034 1.14593 81 76 75
1.86854 -1.13233 1.14336 60 60 65
1.86889 -1.14912 1.14551 78 73 73
1.85199 -1.16753 1.14678 70 68 71
1.84956 -1.18897 1.14662 67 66 70
1.34617 -1.03012 0.810178 190 190 187
1.82879 -1.09129 1.16442 60 60 66
1.83107 -1.14961 1.1651 55 55 60
1.82908 -1.17269 1.16208 52 52 57
1.82817 -1.2104 1.16435 58 57 62
1.81031 -1.17083 1.16501 40 41 47
1.43031 0.508675 0.924801 149 137 120
1.31447 -0.851869 0.802648 218 217 214
1.79178 -1.04964 1.1884 36 39 46
1.79284 -1.07369 1.18642 40 42 49
1.79185 -1.09003 1.18638 44 46 53
1.79075 -1.15085 1.16205 39 40 46
1.79184 -1.19193 1.1622 28 28 34
1.79428 -0.692256 1.18613 48 51 57
1.81207 -0.790965 1.22449 57 59 63
1.79013 -1.03064 1.18727 41 44 52
1.77023 -1.13183 1.16469 43 44 51
1.76811 -1.15164 1.16204 31 32 38
1.75067 -1.21113 1.16422 32 33 40
1.7125 -0.0515879 1.06536 202 192 180
1.73344 -1.13043 1.14279 42 43 49
1.73293 -1.15051 1.14419 34 35 41
1.73348 -1.17004 1.14488 32 33 40
1.73164 -0.991562 1.14726 75 75 78
1.71407 -1.04842 1.1261 115 108 103
1.70821 0.310443 1.07773 236 226 213
1.70601 0.293451 1.07712 234 224 211
1.6925 0.0505466 1.063 220 211 197
1.68928 0.0323698 1.06264 219 209 195
1.68905 -0.012234 1.06168 212 202 187
1.69214 0.34705 1.07869 231 222 211
1.69149 0.289084 1.06713 238 229 215
1.69042 0.228956 1.06266 233 223 209
1.67111 0.189547 1.06346 228 219 205
1.67067 0.0308014 1.06236 219 209 195
1.6732 0.0111821 1.06514 215 205 191
1.94679 0.409507 0.805786 127 112 94
1.66955 0.469846 1.0596 171 160 150
1.67707 0.448316 1.07893 160 153 145
1.65427 0.389765 1.04732 193 187 181
1.6517 0.368472 1.04432 204 198 190
1.65482 0.329272 1.0612 187 180 172
1.65197 0.310827 1.04654 218 210 199
1.65145 0.247328 1.06075 212 204 191
1.80894 -0.891242 1.12638 22 26 35
1.65136 0.465118 1.04603 175 168 162
1.65073 0.449895 1.0462 166 162 160
2.21185 -0.551371 0.663048 113 87 69
2.09334 0.168028 0.686802 128 110 90
1.59164 -0.0305898 0.884696 199 186 166
1.55122 0.467828 1.00302 155 141 118
1.40974 -0.810593 0.828498 219 222 222
2.20889 -0.171292 0.505409 128 107 85
1.72742 -0.750425 1.02716 138 127 112
1.76988 -1.01128 1.1452 20 22 30
2.16929 -0.730573 0.863393 64 66 69
2.26948 -0.491763 0.647662 120 99 82
2.32992 -1.21074 0.727491 48 50 53
2.15168 -0.491192 0.547974 106 82 59
1.53009 -0.972241 0.783937 116 118 121
1.55417 -1.2917 0.944716 57 57 61
2.0512 -1.29067 1.04311 59 58 59
1.76369 -0.830243 0.564813 13 31 49
2.13224 0.187711 0.528429 144 121 101
2.19248 -0.550806 0.506301 82 63 49
1.99181 -0.830613 1.08681 43 43 47
1.9914 -0.850747 1.08595 42 42 46
1.94849 -0.691387 1.08365 68 71 75
1.97284 -0.770936 1.10702 41 41 45
1.97247 -0.791474 1.10768 41 41 45
1.97325 -0.809926 1.10749 41 41 44
1.95293 -0.7704 1.127 41 41 45
1.9518 -0.811505 1.12646 41 42 45
2.17178 -0.550523 0.546865 104 78 54
1.95131 -0.851158 1.12603 42 41 44
1.95006 -0.890224 1.12387 45 45 47
1.94929 -0.910186 1.12474 46 46 48
1.94922 -0.930549 1.12491 45 44 48
1.94995 -0.952221 1.12383 48 48 50
2.14908 0.370671 0.63953 115 98 79
1.93143 -0.791429 1.14762 41 41 44
1.93163 -0.83089 1.14604 42 42 44
1.93016 -0.85096 1.14504 43 43 45
1.92979 -0.892252 1.14533 46 45 48
1.91038 -0.811046 1.16638 43 43 45
1.91205 -0.831908 1.16572 41 41 44
1.91041 -0.871635 1.16474 43 43 45
1.89315 -0.750387 1.18675 40 41 45
1.89287 -0.771248 1.18804 41 41 44
1.89342 -0.791 1.18738 42 42 44
1.89134 -0.810695 1.18652 42 42 44
1.89181 -0.830577 1.18675 42 42 44
1.72071 0.144878 0.986884 134 117 107
1.88892 -0.890871 1.16418 53 53 56
1.88874 -1.21094 1.18405 68 66 67
1.8902 -0.870408 1.18555 42 42 44
1.86966 -0.930752 1.18448 54 55 57
1.8104 0.427856 1.0036 166 153 135
1.87203 -0.710531 1.20613 41 42 47
1.87205 -0.750398 1.20749 42 42 45
1.87231 -0.791473 1.20806 43 42 45
1.86979 -0.849448 1.20452 43 42 45
1.6903 -1.1917 1.08643 20 21 27
1.8121 -0.693339 1.10547 53 55 60
1.84869 -0.691455 1.18366 67 70 74
1.84847 -0.871186 1.20405 54 55 58
1.84974 -0.891083 1.20399 54 55 58
1.84967 -0.930938 1.20464 55 55 58
1.84968 -0.950923 1.20556 55 56 58
1.85076 -1.01085 1.20524 57 58 61
1.8318 -0.689788 1.18694 84 87 91
1.85053 -0.729993 1.22691 43 44 48
1.85111 -0.751224 1.22694 43 43 47
1.85158 -0.771268 1.22764 43 43 47
1.85211 -0.789913 1.22711 43 43 47
1.85078 -0.831645 1.22364 44 44 47
1.85021 -0.850148 1.22474 45 44 46
1.85003 -0.710912 1.23908 43 43 47
1.84819 -0.731311 1.24057 43 43 46
1.84737 -0.771538 1.2424 43 43 45
1.82828 -0.851104 1.22366 56 57 60
1.82948 -0.890976 1.22394 56 57 60
1.83008 -1.03143 1.22361 63 63 66
1.82983 -1.05108 1.22379 63 63 66
1.82988 -0.75165 1.24586 46 46 50
1.83214 -0.770813 1.24637 44 45 49
1.83251 -0.791585 1.24557 45 45 49
1.81166 -0.891027 1.2248 50 51 56
1.81268 -0.910979 1.22448 53 55 59
1.81288 -0.950855 1.22564 52 53 57
1.81243 -0.990998 1.22603 47 49 53
1.7483 0.208981 1.06237 204 193 175
1.73168 -0.668489 1.10457 101 98 97
1.8096 -0.770547 1.24127 52 53 58
1.81064 -0.790691 1.24229 54 55 59
1.81132 -0.810751 1.24297 56 56 59
1.79229 -0.910596 1.2255 28 32 38
1.79183 -0.931823 1.22496 29 31 37
1.792 -0.952 1.22667 24 27 33
1.77728 -1.0879 1.20222 41 45 52
1.74952 -1.12959 1.17776 47 48 54
1.77157 -0.689154 1.20308 66 69 73
1.79773 -0.734296 1.23864 41 41 45
1.79773 -0.751838 1.239 16 16 21
1.77431 -0.890043 1.22042 38 40 46
1.77316 -0.909943 1.22186 35 36 41
1.73244 -1.07075 1.16159 77 76 78
2.05161 0.725599 0.692716 228 216 187
1.69164 0.150644 1.04501 230 221 207
1.69242 0.129379 1.04513 227 219 204
1.69007 -0.0313591 1.06513 210 200 186
1.69076 -0.0703207 1.06313 210 200 185
1.69215 -0.111809 1.06279 207 198 183
1.75746 -0.772524 1.20176 149 146 143
1.71687 -0.891081 1.14556 128 121 114
1.69082 0.188782 1.04481 232 223 210
1.67141 0.167835 1.04659 233 224 210
1.67074 0.149154 1.04744 232 223 208
1.67104 0.129804 1.0474 231 222 208
1.67108 0.108386 1.04868 230 221 206
1.67117 -0.0312542 1.06599 210 200 185
1.67168 -0.048853 1.06461 209 199 185
1.67208 0.369337 1.0469 237 230 221
1.67117 0.269195 1.04493 238 229 216
1.67055 0.249555 1.04559 238 229 216
1.67026 0.229697 1.04546 236 227 213
1.67129 0.209173 1.04584 235 227 212
1.67179 0.188656 1.047 234 225 211
2.19101 -1.24952 0.868351 50 50 52
2.16999 -0.511639 0.624292 101 83 70
1.55111 -0.970394 0.866902 147 139 130
2.15173 -0.2107 0.525607 134 111 87
2.02738 0.368664 0.701372 147 129 108
1.8103 -0.457123 1.04075 145 141 132
2.04953 -0.291563 0.685852 123 100 75
2.27128 -0.669522 0.685727 70 54 49
2.22802 -0.290595 0.505137 121 101 81
2.13216 -0.370812 0.564359 118 95 72
1.28553 -1.09067 0.706433 169 166 159
1.57136 -0.830968 0.885045 148 137 124
1.5931 0.324457 1.00716 187 182 175
1.58624 -1.03122 0.870731 146 136 122
1.36975 -1.0095 0.865262 203 202 200
2.19307 -0.390503 0.466157 111 90 72
1.51195 -1.33287 0.814206 129 129 129
1.58717 -0.250513 0.763125 137 130 121
1.82882 -0.41113 0.944905 124 98 73
1.99279 0.426407 0.808047 125 115 99
1.87019 -0.70639 1.08515 62 64 69
1.83672 -0.0705854 0.872557 127 106 88
2.14998 -1.15094 0.905927 50 50 52
1.83254 0.449368 0.997638 206 180 142
1.86828 -0.8307 1.18334 52 52 55
1.81602 0.445965 1.00578 187 167 144
2.21281 -0.770905 0.807582 54 57 59
1.79388 -0.693113 1.16638 68 71 77
1.81104 -0.770326 1.20721 46 49 54
1.81216 -0.810907 1.22462 57 59 64
1.81184 -0.830561 1.22399 58 60 65
1.75309 -0.687848 1.1269 59 63 67
1.7925 -0.851281 1.2249 34 37 43
1.73799 -1.03082 1.16165 84 83 86
1.71409 -0.733546 1.12813 151 147 145
1.69152 -0.0307277 1.04467 220 210 195
1.6912 -0.0504461 1.0438 218 208 193
1.69195 -0.0702143 1.0446 216 206 192
1.67244 -0.0907112 1.0433 214 204 189
1.67076 -0.0326866 1.0457 219 210 195
1.66875 -0.0514887 1.04328 217 208 193
1.6713 0.227858 1.06396 231 222 208
1.66998 0.208248 1.06335 229 220 206
1.65114 0.0677694 1.04531 226 217 202
1.65161 0.0291423 1.04485 223 214 199
1.65105 -0.0318118 1.0451 217 208 194
2.06969 0.00940874 0.683247 140 122 97
1.63005 0.4687 1.02203 159 145 123
1.63227 0.109782 1.04673 214 207 193
2.12842 0.168679 0.603251 137 118 95
2.21071 -0.512117 0.704669 104 77 59
1.51048 0.448742 0.925592 100 90 76
1.60873 0.467113 1.04419 151 139 120
1.61252 0.430336 1.03896 157 156 156
1.77124 0.30876 0.965427 133 117 106
1.60904 0.449983 1.0432 136 126 111
1.59036 0.467985 1.06364 179 167 150
1.57149 0.467813 1.06475 150 138 121
1.56956 0.464595 1.07977 191 175 152
1.92778 0.128948 0.825718 149 127 102
2.13083 -0.672799 0.844505 54 54 57
1.53389 -0.852896 0.88735 157 153 152
1.83273 -0.910411 1.14685 52 56 64
2.13198 -0.0510253 0.565576 137 113 90
1.89052 0.14841 0.804947 140 117 97
1.82536 -0.832568 0.506502 28 34 48
1.59116 -1.21001 0.787306 33 39 48
1.44287 -0.853086 0.877007 223 224 226
2.16195 -0.737155 0.51755 47 37 32
2.01363 -0.551879 0.67102 102 78 58
2.06631 0.389016 0.657183 133 115 95
2.20969 0.467889 0.524611 119 108 98
2.15045 -1.01101 0.886216 41 43 46
2.09274 -0.550526 0.685605 102 81 61
1.99302 -0.350958 0.705623 124 101 81
2.0527 -0.529472 0.666664 103 79 54
1.85324 -0.851547 1.11044 52 54 62
1.8544 -0.872479 1.10955 51 53 61
1.85067 -0.909988 1.11101 51 53 61
1.85096 -0.951482 1.11013 51 54 61
1.83197 0.389426 0.967467 116 102 85
1.83067 -0.932151 1.12514 42 44 52
1.82901 -1.01102 1.12595 41 43 50
1.82983 -0.809687 1.12909 54 57 64
1.82973 -0.831781 1.12734 50 53 60
1.83134 -0.889631 1.12411 46 48 56
1.81092 -0.990346 1.12591 23 26 34
1.81062 -1.01077 1.1262 26 29 37
1.8102 -1.05093 1.12508 19 23 30
1.80902 -1.07085 1.12287 16 18 26
1.80731 -1.09074 1.12571 16 19 27
1.80905 -0.909977 1.12685 21 25 33
1.80925 -0.929489 1.12721 24 28 36
1.81033 -0.971248 1.12584 20 23 31
1.79099 -1.13037 1.12498 14 17 24
1.79158 -1.1509 1.12601 12 14 22
1.81095 -0.790958 1.14456 23 27 35
1.79 -0.890935 1.14584 27 31 38
1.7893 -0.931049 1.14539 30 32 40
1.78977 -0.970308 1.14684 32 34 40
1.7904 -0.989833 1.145 31 33 40
1.78993 -1.01231 1.14636 29 30 38
1.78975 -1.03325 1.14678 31 33 40
1.79251 -0.82966 1.16467 47 51 59
1.77033 -0.970879 1.14659 22 25 33
1.76962 -0.991454 1.14663 29 31 39
1.76988 -0.830788 1.16862 39 43 51
1.77011 -0.850649 1.1672 42 47 55
1.76793 -0.87193 1.16655 45 50 58
1.76785 -0.88936 1.16584 48 53 61
1.77039 -0.909925 1.16507 43 47 54
1.77146 -0.931409 1.16709 39 43 50
1.75103 -1.0106 1.14668 40 42 49
1.75149 -1.03102 1.14575 36 38 45
1.72757 0.0696518 1.0281 165 152 137
1.7501 -0.131041 1.06212 179 167 150
1.75048 -0.151173 1.06217 176 164 147
1.77047 -0.791937 1.16978 43 48 56
1.76863 -0.809902 1.16989 32 37 45
1.75048 -0.870309 1.16469 49 53 58
1.75059 -0.951039 1.14662 37 40 47
1.74961 -0.971166 1.14604 39 42 49
1.73302 -0.87099 1.14511 70 71 75
1.73282 -0.891295 1.14441 70 70 74
1.73177 -0.911822 1.14447 75 75 78
2.28931 -0.850608 0.744639 60 64 67
1.73121 -0.930582 1.14566 74 75 77
1.71408 -0.970711 1.12483 111 106 102
1.7172 -0.78957 1.12556 112 110 107
1.72555 0.243412 1.07689 235 225 209
1.72435 0.227172 1.07676 234 224 208
1.69063 -0.151798 1.06429 203 192 178
1.67074 -0.150861 1.06274 205 193 179
1.6706 -0.170314 1.06432 204 193 178
1.63106 -0.0305274 1.04059 212 205 191
2.14786 -0.111566 0.65673 120 104 90
1.63045 0.150738 1.02896 224 216 202
1.92578 -0.151493 0.900838 117 99 81
2.13231 0.629831 0.631093 115 104 91
1.80189 -0.93955 0.682246 37 47 58
2.08943 0.22912 0.605636 131 110 90
1.85293 0.188486 0.846698 139 118 102
1.83736 -0.45993 1.04432 77 80 81
2.07196 -0.930709 0.947466 40 42 46
2.1329 -0.790786 0.886498 48 50 53
2.03201 -1.13134 1.02603 50 51 53
1.85274 -0.96846 1.11203 50 52 59
1.85965 -0.98971 1.11137 48 49 57
1.83006 0.430004 0.944194 133 120 107
1.82398 0.444624 0.958256 187 166 133
1.77668 -0.692889 0.525287 72 81 90
1.78865 0.465431 0.96293 183 167 148
1.79111 0.447219 0.986882 171 155 133
1.81 -0.892119 1.14514 21 24 32
1.81086 -0.930534 1.14441 23 26 34
1.81035 -0.991216 1.14472 31 34 41
1.77118 0.467919 0.985931 176 164 151
1.78606 0.444298 1.0008 164 149 130
