ply
format ascii 1.0
comment Created by Open3D
element vertex 1246
property double x
property double y
property double z
property uchar red
property uchar green
property uchar blue
end_header
-0.488217 -0.231714 1.58529 59 64 70
-0.168784 -1.1103 0.924527 72 71 72
-0.0677358 -0.291263 1.46483 41 50 63
-0.609703 -0.470405 1.70447 57 58 64
-0.572234 -0.709906 0.746062 72 62 55
-0.707504 -0.966914 0.783682 35 31 31
-0.79073 -0.391621 0.884529 46 46 52
-0.329939 -0.686425 1.02624 200 140 87
-0.348762 -0.654155 0.785299 184 139 96
-0.630411 -0.575779 1.64973 93 92 100
-0.490668 -0.687155 1.52318 181 170 125
-0.188937 -1.07082 0.950385 58 57 59
0.0751394 -0.911208 1.11286 117 114 117
-0.209028 -0.789708 0.929293 34 25 21
-0.706505 -0.933359 0.750715 47 44 43
-0.728099 -0.473064 0.884318 155 125 102
-0.429401 -0.685024 1.06543 211 153 98
-0.0115827 -0.271389 1.24378 141 135 134
-0.530067 -0.430665 1.60506 41 42 47
-0.389267 -0.630599 0.838526 233 169 107
-0.604693 -0.441796 1.78007 107 106 110
-0.792983 -0.239018 0.848894 112 114 115
0.123993 -0.36931 1.09416 160 154 159
-0.166293 -0.274606 1.48617 125 120 120
-0.541362 -0.390067 1.57148 56 56 63
-0.469306 -0.651594 1.46532 176 173 169
-0.100063 -0.470884 1.03674 171 169 158
0.0712325 -0.230904 1.10494 146 144 147
-0.430967 -0.155057 1.56164 194 195 193
-0.689718 -0.891497 0.762459 41 34 32
-0.608373 -0.172623 1.63138 80 85 95
-0.170441 -0.950786 0.924138 68 65 66
-0.164937 -0.410989 1.34864 114 103 102
-0.1259 -1.02952 0.939866 60 58 61
-0.3334 -0.709321 0.788734 53 44 40
-0.597872 -0.635872 1.0969 242 237 241
-0.688685 -0.630746 1.3058 221 223 235
-0.567379 -1.03638 0.844011 28 22 25
-0.809222 -0.648825 1.46709 222 221 228
-0.249804 -0.411018 1.48439 76 68 68
0.0117415 -0.951147 1.18382 54 53 55
-0.669834 -0.532474 1.646 109 105 103
-0.609994 -0.431007 1.78645 117 119 124
-0.00902363 -0.305745 1.15435 132 124 125
0.0157719 -0.736533 1.13628 94 88 90
-0.847136 -0.673787 1.04642 116 96 83
-0.150743 -0.487512 1.41926 115 104 104
-0.369168 -0.770066 0.809098 22 15 13
-0.795639 -0.746796 0.999177 39 31 26
-0.311825 -0.410728 1.40913 62 58 61
-0.707882 -0.592866 1.7869 112 111 111
0.127887 -0.851086 1.1269 97 97 97
-0.128415 -0.429531 1.2663 162 156 154
-0.669468 -0.612474 0.845005 71 57 46
-0.867809 -0.682244 1.37916 219 203 198
-0.5046 -0.610967 1.45186 178 176 177
0.0725748 -1.07148 1.12722 108 105 108
-0.0262501 -0.290949 1.18758 138 131 130
-0.693568 -0.63245 0.898727 197 147 100
-0.19812 -0.384701 1.496 115 108 109
-0.228954 -0.312238 1.54692 125 120 120
-0.170628 -1.23128 0.9499 62 62 67
-0.310885 -0.410383 1.38444 39 38 43
-0.149773 -0.570532 0.964748 148 139 146
-0.607667 -0.211691 1.72532 90 97 104
-1.04939 -0.690618 1.40496 213 158 108
-0.186306 -0.410919 1.0271 181 178 196
-0.672617 -0.829107 0.719986 38 33 34
-0.631288 -0.573393 0.826712 88 63 44
-0.702769 -0.411389 1.7902 70 73 77
-0.669137 -0.630636 1.68363 82 63 58
-0.224419 -0.512131 1.40802 110 98 96
-0.713185 -0.464322 0.847973 85 83 85
-0.669876 -0.591613 0.68901 28 24 26
-0.789109 -0.254679 0.827574 78 82 88
-0.511578 -0.250638 1.66077 64 67 73
0.146452 -0.908895 1.1467 63 63 64
-0.530374 -0.691049 1.56433 166 156 152
-1.0284 -0.671925 1.30544 207 155 106
-0.132669 -1.03398 0.932716 61 59 62
-0.00406981 -1.14275 1.15207 49 47 51
-0.289166 -0.673984 1.20606 145 106 79
-0.747948 -0.653275 1.20688 243 242 244
-0.0885598 -0.250952 1.28431 138 131 131
-0.493495 -0.667999 1.65033 122 116 115
0.0507566 -0.270969 1.14539 141 137 139
-0.00736506 -0.329192 1.17002 148 143 148
-0.789309 -0.68929 1.5446 189 195 206
-0.66376 -0.290639 1.74492 73 78 85
-0.17562 -0.294731 1.51617 119 112 113
-0.589114 -0.686836 0.905097 225 164 106
-0.794077 -0.761789 0.996411 45 35 29
-0.629262 -0.673791 0.965597 228 169 108
-0.16467 -0.287704 1.66467 36 44 55
-0.130302 -0.230501 1.38463 141 135 135
-0.448427 -0.491711 1.50608 39 36 40
-0.15587 -0.248159 1.71982 131 139 147
0.108987 -0.830307 1.10846 123 123 122
-0.188836 -0.288275 1.64362 45 51 61
-0.599728 -0.746638 0.692687 55 43 39
-0.347896 -0.209119 1.58276 154 155 155
-0.809265 -0.630865 0.986074 45 43 44
-0.448345 -0.931384 0.825937 20 12 11
-0.598765 -0.533213 0.666303 41 32 28
-0.429526 -0.631813 1.46894 178 153 144
-0.282452 -0.623755 1.47049 105 102 108
-0.747741 -0.553247 1.80731 125 126 127
-0.690561 -0.632942 0.884951 109 84 65
-0.519111 -0.639495 1.69373 71 61 56
-0.305039 -0.566158 1.42155 84 77 79
-0.610108 -0.595169 1.76457 77 65 66
-0.391956 -0.944595 0.869581 13 6 5
-0.189294 -0.450854 1.24533 238 214 159
-0.186624 -0.330253 1.48545 147 142 142
-0.0291849 -0.230967 1.22548 140 135 136
-0.168046 -0.455803 1.23204 251 225 168
-0.732413 -0.315494 0.884672 45 50 58
0.0119627 -0.852571 1.22436 42 44 48
-0.247978 -0.651205 0.82108 52 41 37
-0.709536 -0.832014 0.728182 36 34 35
-0.271627 -0.673243 1.24385 132 108 97
-0.34893 -0.672769 0.965394 211 153 96
-0.888347 -0.657779 1.24536 204 154 114
-0.169406 -0.450397 1.36497 112 102 103
-0.684714 -0.669713 0.810047 36 29 31
-1.01147 -0.683578 1.54441 213 205 206
-0.629484 -0.669819 1.52467 163 120 96
-0.127351 -0.330598 1.65797 32 38 48
-0.170211 -0.15833 1.4047 193 193 191
-0.439701 -0.308713 1.6095 57 58 67
-0.762713 -0.631618 0.774179 54 50 50
-0.312479 -0.702994 1.13184 152 106 68
-0.7667 -0.63477 1.3068 219 214 218
-0.613859 -0.92896 0.711734 33 29 30
-0.346858 -0.686428 1.36512 164 119 88
-0.570736 -0.833961 0.765404 198 148 101
-0.330109 -0.945622 0.936247 15 7 6
-0.809839 -0.651655 1.3852 195 184 183
-0.0895473 -0.389447 1.16485 214 216 230
-0.808726 -0.854063 0.819242 31 28 28
-0.655256 -0.926326 0.758234 40 32 30
-0.707512 -0.968734 0.727076 40 38 39
-0.749516 -0.312208 0.825051 50 54 62
-0.644812 -0.174508 1.68552 82 87 96
0.109762 -0.730644 1.10787 129 129 129
-0.828559 -0.449661 0.785048 43 45 50
-0.851254 -0.610752 1.6435 151 152 158
-0.342087 -0.658278 1.1058 200 145 97
-0.948497 -0.638086 1.66887 210 203 198
-0.169669 -0.212302 1.52618 57 65 76
-0.110294 -0.330628 1.38478 133 125 123
-0.60609 -0.751799 0.763497 54 42 34
-0.549164 -0.685952 0.865088 232 169 107
-0.450488 -0.508823 1.52307 64 56 59
-0.692431 -0.734936 0.863778 42 31 25
-0.731516 -0.653778 0.827032 53 42 39
-0.670791 -0.973696 0.727233 38 35 36
-0.669634 -0.70422 1.60505 141 103 81
-0.648593 -0.95044 0.728515 35 33 33
-0.595779 -0.171941 1.80356 117 122 125
-0.0869298 -0.472442 1.07613 173 170 159
-0.866248 -0.409529 0.825708 55 56 59
-0.189945 -0.227593 1.67954 69 75 82
-0.389306 -0.888254 0.84528 35 28 24
-0.184095 -0.47158 1.36975 113 101 100
0.037724 -0.210211 1.11182 128 121 122
-0.609804 -0.620036 1.28447 228 228 238
-0.229624 -0.192648 1.39101 144 143 142
-0.222069 -0.700971 1.07757 181 130 87
-0.429821 -0.686741 1.38592 177 131 99
-0.708789 -0.63398 1.3657 213 217 230
-0.526869 -0.33265 1.56936 59 59 66
-0.47045 -0.659624 1.30889 168 125 96
-0.768423 -0.59107 1.7651 126 125 114
-0.928387 -0.632553 1.68716 164 162 161
-0.908944 -0.6702 1.48586 173 139 115
-0.744707 -0.511089 1.84377 102 100 99
-0.568512 -0.210437 1.70524 73 78 85
-0.118484 -1.11943 0.93229 63 62 65
-0.0288043 -0.382989 1.57303 80 88 102
-0.330305 -0.687332 1.44591 153 114 93
-0.732412 -0.832912 0.800122 31 25 23
-0.707295 -0.671002 0.926999 169 127 86
-0.430017 -0.659054 0.965706 208 150 97
-0.469517 -0.649464 1.52528 145 128 111
-0.684693 -0.617319 1.5806 97 70 59
-0.135864 -0.178309 1.64652 71 78 85
-0.24951 -0.684171 1.00644 202 145 93
-0.70868 -0.969259 0.745819 42 39 39
-0.231989 -0.511306 1.14402 186 175 174
-0.529336 -0.672312 1.08552 223 166 109
-0.267487 -0.291354 1.57093 121 118 118
-0.727954 -0.616771 1.26713 182 165 162
-0.549178 -0.632145 1.58448 139 132 132
-0.969428 -0.669966 1.6048 162 135 118
-1.07015 -0.672045 1.38408 202 150 105
-0.688246 -0.632674 1.76512 105 99 97
-0.489477 -0.251016 1.60439 55 59 64
-0.683958 -0.19422 1.8073 88 93 98
-0.748342 -0.691655 0.787286 30 25 25
-0.668154 -0.669003 1.46613 193 182 181
-0.130057 -1.09261 0.945123 61 61 63
-0.62902 -0.910122 0.74524 41 33 30
-0.728414 -0.570024 1.68477 141 136 120
-0.749865 -0.452135 0.786038 31 30 35
-0.250453 -0.292066 1.52279 112 108 109
-0.328382 -0.291075 1.38634 41 42 49
-0.783584 -1.00989 0.76694 127 99 77
-0.767028 -1.02944 0.781421 54 49 47
-0.170979 -0.370966 1.44417 121 113 112
-0.687688 -0.794429 0.732729 36 31 33
-0.629423 -0.650907 1.74241 80 72 72
-0.349141 -0.636772 0.770541 235 172 110
-0.349036 -0.674196 1.065 194 137 85
-0.548466 -0.651453 1.26551 233 233 241
-0.250873 -0.632293 1.07308 111 85 74
-0.6318 -0.668516 1.74505 69 56 53
-0.928914 -0.672225 1.66504 169 132 108
-0.669476 -0.911932 0.745765 44 38 36
-0.667835 -0.684741 0.790468 45 38 41
-0.533869 -0.543476 1.65607 43 38 38
-0.252441 -0.44985 1.52179 87 80 82
-0.173102 -1.03032 0.950179 55 54 56
-0.468161 -0.33075 1.56636 47 49 53
-0.406044 -0.156958 1.48895 134 136 134
-0.800679 -0.548046 0.867937 43 38 39
-0.722327 -0.871619 0.707934 235 172 111
-0.692207 -0.868951 0.710333 154 117 80
-0.681596 -1.09159 0.753197 41 36 37
-0.628865 -0.550734 0.705694 34 27 26
-0.688663 -0.651944 1.64495 101 75 63
-0.671866 -0.864837 0.711188 232 173 113
-0.869426 -0.657775 1.14763 205 154 111
-0.631415 -0.949241 0.72462 28 25 27
-0.611648 -0.987797 0.751523 35 30 31
-0.614336 -1.01307 0.752301 24 22 25
-0.570092 -1.09045 0.78116 58 49 45
-0.409698 -0.637413 0.825788 232 167 106
-0.48586 -0.371079 1.50354 50 50 54
-0.667143 -0.860143 0.714914 233 173 111
-0.747437 -1.01116 0.750058 51 47 48
-0.72822 -0.990933 0.747639 45 42 43
-0.649459 -0.929524 0.727987 42 37 36
-0.63049 -0.929463 0.743177 37 32 30
-0.408562 -0.528455 1.28298 171 157 114
-0.628828 -0.851508 0.728963 98 76 58
-0.593422 -0.990214 0.77101 27 23 25
-0.593226 -1.01107 0.769647 21 18 20
-0.431706 -0.188541 1.60491 113 114 115
-1.17087 -0.684694 1.47085 206 155 109
-0.726244 -0.865678 0.72653 134 102 72
-0.609697 -0.870889 0.74516 44 35 31
-0.609187 -0.892134 0.746517 38 30 26
-0.649272 -0.671608 0.825787 53 41 35
-0.60726 -0.953793 0.764981 22 19 22
-0.590333 -0.950293 0.765226 38 32 32
-0.256328 -0.554212 1.51645 130 130 137
-0.707245 -0.851179 0.723383 61 51 45
0.0130313 -0.350878 1.16703 146 143 151
-0.60939 -0.850881 0.747263 67 51 40
-0.669146 -0.628743 1.36568 223 224 232
-0.65061 -0.410595 1.76343 70 73 78
-0.649563 -0.849673 0.746307 83 64 48
-0.629892 -0.849819 0.746361 84 63 47
-0.589777 -0.850905 0.747231 73 54 42
-0.59146 -0.871363 0.745362 41 32 28
0.0653736 -1.00878 1.16181 105 103 104
-0.57387 -0.966109 0.774367 37 31 31
-0.729714 -0.613279 1.46389 177 189 206
-0.547514 -0.971086 0.783452 30 25 24
-0.59293 -1.05212 0.78951 26 20 20
-0.749897 -0.65047 1.4656 189 201 217
-0.788295 -0.410717 0.784745 28 29 35
0.0904041 -0.191472 1.06685 134 133 133
-0.706798 -0.856865 0.748222 179 132 88
-0.589495 -0.89146 0.764984 43 32 26
-0.549642 -0.952197 0.786249 41 35 35
-0.51308 -0.971429 0.790607 49 41 40
-0.530275 -1.09175 0.825266 36 33 33
-0.748067 -0.865532 0.745136 153 114 78
-0.568732 -0.928646 0.761242 35 28 25
-0.573052 -0.931241 0.776597 46 38 37
-0.722856 -0.860555 0.749871 232 168 106
-0.509332 -0.951778 0.80297 47 39 37
-0.629702 -0.83274 0.764659 100 73 52
-0.610362 -0.833527 0.765097 167 123 82
-0.484518 -1.02914 0.825979 19 14 14
-0.506777 -1.02883 0.826163 38 30 30
-0.629747 -0.568479 1.70315 80 74 73
-0.789238 -0.610182 1.36382 180 187 207
-0.10803 -0.275545 1.56842 40 50 62
-0.708663 -0.388783 0.846428 68 62 61
-0.670498 -0.849504 0.761579 87 67 48
-0.553728 -0.836579 0.772603 204 154 109
-0.153243 -0.290834 1.47963 122 115 116
-0.629706 -0.668628 0.728816 36 30 29
-0.506121 -1.01075 0.826889 39 30 30
-0.70678 -0.349949 0.771479 41 40 43
-0.50674 -0.951308 0.825493 46 36 34
-0.509833 -1.03213 0.84557 34 26 25
-0.509565 -1.04914 0.845877 32 25 25
-0.508781 -1.07126 0.846603 28 23 23
-0.247637 -0.450803 1.46548 80 70 70
-0.486337 -0.231386 1.54777 63 65 73
-0.652935 -0.756575 0.862473 52 40 35
-0.762411 -0.860275 0.771194 229 165 105
-0.649142 -0.83323 0.783708 106 77 53
-0.509925 -1.01194 0.844267 35 27 25
-0.790194 -0.657585 1.1838 200 169 148
-0.766197 -0.852877 0.788713 83 64 51
-0.687877 -0.851021 0.786278 107 80 55
-0.508982 -0.932018 0.822929 50 40 37
-0.749445 -0.666176 1.28519 238 236 237
-0.507739 -0.895061 0.817467 58 48 45
-0.813802 -0.270241 0.920677 207 197 188
-0.648734 -0.667339 1.30385 230 231 241
0.0694383 -0.250785 1.18035 200 204 213
-0.279354 -0.49222 1.14952 188 176 174
-0.187368 -1.07123 0.963638 52 51 53
-0.364592 -0.648833 1.50635 101 92 87
-0.248632 -0.270483 1.50603 113 110 110
-0.830375 -0.63537 1.62461 137 139 147
-0.167783 -0.890374 0.985371 53 49 49
-0.483522 -0.579765 1.41411 172 171 173
-0.90876 -0.672669 1.3848 218 198 185
-0.168745 -0.912117 0.928481 66 63 63
0.0722099 -0.51096 1.12624 136 134 135
-0.18709 -0.470058 1.2298 241 228 211
-0.0547634 -0.375597 1.64485 43 48 59
-0.751808 -0.552816 0.843541 33 29 33
-0.408681 -0.493048 1.40573 119 94 89
-0.749895 -0.609217 1.42585 172 186 205
0.006968 -0.391258 1.09005 159 159 152
-0.6291 -0.670021 1.66513 132 102 84
-0.728502 -0.569065 0.790117 32 30 31
-0.807211 -0.629155 0.925756 35 30 34
-0.449145 -0.671918 1.02592 218 159 101
-0.507493 -0.431447 1.54575 47 47 53
-0.805942 -0.590236 0.906383 40 35 37
-0.869134 -0.63036 1.70448 144 147 154
-0.0128387 -0.351348 1.24233 139 134 137
-0.489212 -0.430226 1.56469 40 40 45
-0.708711 -0.634529 1.38536 212 216 229
-0.269839 -0.172835 1.44502 182 183 183
-0.475064 -0.484415 1.56094 34 32 36
-0.0906807 -0.351851 1.56816 45 51 61
0.131593 -0.212334 1.16297 112 115 118
-0.759158 -0.434966 0.914668 131 109 92
-0.047348 -0.909602 1.08392 59 57 59
-0.508239 -0.68993 0.663262 128 105 86
-0.00797981 -1.14981 1.2059 50 49 52
-0.447824 -0.311255 1.50664 48 49 55
-0.489317 -0.670331 0.665889 170 131 93
-0.48795 -0.711206 0.684664 103 85 70
-0.886438 -0.639902 1.48477 161 121 97
-0.488248 -0.729404 0.686343 57 53 52
-0.467503 -0.688116 0.704343 203 152 103
-0.341513 -0.250406 1.55388 56 61 70
-0.71005 -1.07085 0.744921 46 43 44
-0.591399 -0.953346 0.730894 27 24 24
-0.672735 -1.06783 0.744992 38 35 37
-0.568024 -0.931976 0.750445 23 19 18
-0.55481 -1.12444 0.780799 46 41 43
-0.188184 -0.928771 0.986287 43 39 38
-0.527152 -0.670594 0.686913 157 124 92
-0.509225 -0.671414 0.705586 234 174 107
-0.284572 -0.528948 1.22523 186 176 172
-0.488976 -0.67133 0.705775 236 175 108
-0.450511 -0.709803 0.706998 67 58 54
-0.587386 -1.09835 0.771787 78 70 66
-0.558818 -1.0878 0.775005 57 50 51
-0.550276 -1.107 0.780628 48 42 43
-0.545552 -1.02514 0.769414 27 25 25
-0.830008 -0.712206 1.50595 210 195 202
-0.528569 -0.670342 0.70591 218 163 105
-0.463757 -0.731908 0.718604 50 45 45
-0.465871 -0.749657 0.722106 49 42 41
-0.607885 -1.10947 0.778904 86 77 67
-0.58949 -1.09036 0.780813 63 54 48
-0.445211 -0.71168 0.720329 78 65 58
-0.449966 -0.749334 0.726506 46 39 38
-0.488894 -0.672139 0.725632 237 175 108
-0.469363 -0.671784 0.725597 237 175 108
-0.430032 -0.70882 0.726363 68 57 52
-0.249785 -0.331698 1.5431 109 103 105
-0.607708 -1.05044 0.785025 23 19 19
-0.711818 -0.776503 0.88301 49 37 30
-0.528916 -0.671859 0.725747 232 172 106
-0.423485 -0.7126 0.739445 77 62 54
-0.443315 -0.734561 0.738353 56 49 47
-0.492097 -0.91296 0.774457 47 40 37
-0.476367 -0.988792 0.792091 54 46 45
-0.430564 -0.749775 0.746488 45 39 37
-0.471407 -0.882528 0.773138 58 51 47
-0.470078 -0.872251 0.779903 60 51 49
-0.409359 -0.670429 0.745491 212 157 102
-0.389388 -0.684417 1.10602 192 136 85
-0.410952 -0.7275 0.7468 41 34 32
-0.548102 -0.669917 0.72562 189 144 98
-0.509428 -0.672825 0.746164 237 176 108
-0.406677 -0.732041 0.765026 70 57 52
-0.648061 -0.271509 1.69029 73 78 86
-0.688118 -0.331731 1.84582 110 112 116
-0.588117 -0.709926 0.743986 57 45 37
-0.405046 -0.712883 0.763463 89 73 63
-0.449481 -0.910493 0.806601 45 37 35
-0.455835 -0.949577 0.811114 36 28 27
-0.4583 -0.962228 0.811392 36 28 27
-0.854406 -0.338664 0.794393 60 65 73
-0.00507876 -0.210484 1.1688 164 165 169
-0.567724 -0.68917 0.745462 139 112 89
-0.324741 -0.231332 1.36952 53 56 65
-0.408943 -0.67009 0.765428 230 167 103
-0.388088 -0.688955 0.763673 150 114 84
-0.409223 -0.750931 0.76697 37 30 28
-0.455793 -0.99124 0.820179 32 25 26
-0.42916 -0.670848 0.765547 234 172 106
-0.390072 -0.72983 0.767113 44 35 33
-0.385957 -0.729262 0.781624 47 37 33
-0.434844 -0.869241 0.809359 44 34 31
-0.48915 -0.390973 1.56551 43 44 48
-0.568717 -0.671022 0.765624 221 164 103
-0.528988 -0.671792 0.765491 234 172 106
-0.489312 -0.671447 0.765522 234 172 106
-0.382241 -0.712624 0.778073 82 62 50
0.0701725 -0.174882 1.20432 223 227 231
-0.367801 -0.689214 0.782304 141 108 81
-0.367249 -0.709082 0.781632 53 44 39
-0.425219 -0.87191 0.824215 35 27 25
0.0769244 -0.990568 1.11069 113 110 112
-0.708212 -0.684869 1.08514 215 163 121
0.0528498 -0.490662 1.14118 132 132 137
-0.368985 -0.671099 0.785264 226 168 107
-0.386904 -0.771013 0.802635 39 30 28
-0.427653 -0.852315 0.826081 49 41 38
-0.409273 -0.670508 0.7855 231 168 104
-0.370329 -0.750941 0.803128 34 25 23
-0.386006 -0.759667 0.798775 36 28 24
-0.412203 -0.867842 0.829659 38 28 25
-0.670278 -0.630495 1.54505 118 89 74
-0.109489 -0.191105 1.30506 195 198 199
-0.364067 -0.734281 0.80092 50 41 39
-0.414798 -0.886302 0.833181 36 29 25
-0.406733 -0.891295 0.839129 36 29 25
-0.568977 -0.671706 0.785756 228 168 104
-0.528917 -0.671789 0.785467 234 172 105
-0.509083 -0.6706 0.785629 233 171 105
-0.349842 -0.671234 0.785892 157 121 86
-0.408739 -0.869452 0.843316 34 28 26
-0.345669 -0.688197 0.801371 139 107 81
-0.349272 -0.726926 0.802774 40 31 28
-0.435126 -0.990705 0.873168 15 10 10
-0.629762 -0.710408 0.784658 51 42 39
-0.349022 -0.671096 0.805166 231 172 108
-0.368702 -0.771503 0.825683 35 26 24
-0.369072 -0.671182 0.805482 235 175 109
-0.363735 -0.758285 0.823293 43 33 31
-0.469241 -0.67148 0.805371 234 172 106
-0.429184 -0.670632 0.805281 230 166 102
-0.409058 -0.67079 0.805483 232 170 105
-0.668523 -0.770943 0.763629 47 38 32
-0.569165 -0.672375 0.805482 230 170 106
-0.329578 -0.67228 0.805743 167 128 89
-0.32793 -0.713447 0.817993 60 49 45
-0.389397 -0.657631 0.805647 227 167 106
-0.648845 -0.665724 1.16469 245 245 248
-0.882063 -0.711939 1.49135 214 211 210
-0.6737 -0.309482 1.82316 67 72 78
-0.808397 -0.587707 1.80586 82 83 86
-0.109162 -0.290392 1.30584 133 126 125
-0.11038 -0.453357 1.41391 129 119 118
-0.387257 -0.331009 1.42851 50 50 55
-0.789555 -0.650359 1.60643 148 147 151
-0.765087 -0.984642 0.799694 36 33 35
-0.829381 -0.674927 1.14547 223 171 123
-0.1814 -0.359875 1.14454 190 177 154
-0.468565 -0.351749 1.4919 49 50 53
-0.489816 -0.655899 0.865132 216 155 98
-0.549086 -0.650005 1.54517 166 161 161
-0.587926 -0.638798 1.13216 197 168 154
-0.751662 -0.770052 0.784004 42 37 36
0.108432 -0.950282 1.11218 117 117 116
-0.748242 -0.651791 1.34628 189 202 218
-0.723577 -0.489857 1.80765 66 64 64
-0.128519 -0.909414 0.962767 57 55 57
-0.805755 -0.971266 0.804323 33 31 33
-0.0701032 -0.269888 1.34492 140 132 131
-0.112796 -0.831526 0.964206 54 52 53
-0.669116 -0.690891 1.68688 128 94 73
-0.349009 -0.687732 1.04566 197 138 86
-0.62892 -0.590921 1.66826 92 91 96
-0.587978 -0.94912 0.742247 33 27 27
-0.305651 -0.45115 1.32909 49 46 54
-0.669367 -0.209264 1.76103 89 95 100
-0.700628 -0.515511 1.75333 86 86 90
-0.224204 -0.551267 1.06465 156 143 139
0.0693087 -0.205451 1.20365 202 206 211
-0.728932 -0.666066 1.28563 227 221 221
-1.11991 -0.638895 1.43237 164 117 119
-0.609674 -0.631897 1.26678 232 233 242
-0.469595 -0.190305 1.586 72 76 82
-0.148683 -0.348488 1.64387 39 44 56
-0.370976 -0.683949 0.803352 230 169 110
-0.613995 -0.468595 1.72143 43 44 51
-0.187771 -0.190969 1.32943 122 118 119
-0.263646 -0.570973 1.12595 144 106 110
-0.0894098 -0.291091 1.28477 136 129 128
-0.370392 -0.685984 1.28514 187 148 121
-0.607312 -1.03084 0.806163 33 25 22
-0.606195 -0.708995 0.887534 223 161 105
-0.571998 -0.891 0.721533 25 21 24
-0.688638 -0.611431 1.66479 98 85 82
-0.490303 -0.706758 0.667942 68 59 54
-0.50655 -0.728635 0.686956 186 139 98
-0.648502 -0.53006 1.647 98 97 99
-0.252222 -0.332276 1.5829 121 114 115
-0.128701 -0.311989 1.62575 38 44 55
-0.00965644 -0.188827 1.1251 130 125 126
-0.530601 -0.689425 0.684822 104 87 74
-0.470351 -0.685011 1.50441 163 156 131
-0.509103 -0.210827 1.62541 65 70 77
-0.406839 -0.49218 1.38504 158 114 96
-0.52875 -0.688473 0.707362 186 144 106
-0.489186 -0.686789 0.705788 234 172 110
-0.429351 -0.689989 0.706287 64 52 46
-0.610587 -0.930336 0.72509 27 23 25
-0.430244 -0.730538 0.728083 38 32 30
-0.411658 -0.747954 0.729823 50 42 41
0.0904236 -0.449974 1.09235 125 124 127
-0.389363 -0.745969 0.747252 50 42 43
-0.0917435 -0.228536 1.36269 163 162 165
-0.509572 -0.291119 1.58637 53 56 62
-0.545745 -0.689839 0.727355 153 123 98
-0.408667 -0.656208 0.726176 163 123 88
-0.391501 -0.709117 0.746935 40 32 30
-0.328885 -0.656223 0.846263 230 169 107
-0.66716 -0.488885 0.670662 26 27 35
-0.828933 -0.630155 1.60391 139 140 147
-0.648943 -0.490012 0.671524 19 19 25
-0.668404 -0.510313 0.687081 31 28 31
-0.429395 -0.6545 0.725278 217 158 101
-0.687708 -0.47415 0.673661 28 30 38
-0.667155 -0.490854 0.687456 34 31 32
-0.667669 -0.550292 0.686648 31 27 28
-0.830982 -0.631239 0.943956 37 33 36
-0.40951 -0.656751 0.744459 219 158 99
-0.375343 -0.729357 0.752649 51 43 42
-0.375007 -0.741354 0.755405 51 43 42
-0.365775 -0.771361 0.765503 60 52 51
-0.646993 -0.530102 0.686941 33 28 28
-0.646221 -0.550032 0.704936 32 27 29
-0.685774 -0.611356 0.705806 33 29 29
-0.428855 -0.655971 0.745889 221 161 102
-0.353188 -0.770104 0.771073 59 49 48
-0.707096 -0.469528 0.688412 55 54 56
-0.647633 -0.52989 0.705341 32 27 27
-0.646814 -0.631415 0.726437 33 27 26
-0.351979 -0.709025 0.768271 54 45 42
-0.350744 -0.731184 0.768569 62 51 50
-0.723959 -0.471925 0.688123 60 61 64
-0.666396 -0.589649 0.840933 111 86 67
-0.667267 -0.507891 0.701915 38 33 33
-0.649034 -0.509858 0.705024 30 25 26
-0.627674 -0.590284 0.725987 36 29 29
-0.627256 -0.610007 0.726456 31 26 28
-0.628323 -0.629806 0.726019 30 25 28
-0.6454 -0.70988 0.788771 50 40 38
-0.266377 -0.490985 1.48862 76 65 65
-0.706296 -0.452589 0.690012 59 58 59
-0.648384 -0.691248 0.743104 42 34 29
-0.348445 -0.652077 0.764504 136 106 82
-0.327845 -0.770185 0.787196 42 34 33
-0.688239 -0.469153 0.704797 39 38 40
-0.647948 -0.55074 0.726397 33 27 28
-0.631986 -0.551697 0.723013 37 30 29
-0.608975 -0.650898 0.745332 42 33 30
-0.628556 -0.689922 0.746779 44 36 35
-0.41074 -0.655714 0.765626 220 158 99
-0.389379 -0.654192 0.76682 224 163 103
-0.369797 -0.655084 0.766487 188 140 95
-0.726548 -0.449152 0.708803 52 52 54
-0.708374 -0.451304 0.705981 45 45 47
-0.689862 -0.452379 0.704907 41 41 44
-0.588866 -0.671842 0.746611 53 43 37
-0.609312 -0.690487 0.747727 47 37 33
-0.32985 -0.649157 0.767543 96 80 71
-0.630777 -0.610934 0.744812 40 32 32
-0.610497 -0.689741 0.765185 46 36 33
-0.610488 -0.708703 0.765715 47 37 35
-0.314609 -0.731092 0.789417 38 30 29
-0.138799 -0.283627 1.46925 122 115 116
-0.59164 -0.654025 0.765408 63 50 42
-0.46901 -0.65449 0.765719 221 161 102
-0.317342 -0.652274 0.773541 73 63 59
-0.315803 -0.660909 0.775405 70 60 57
-0.313713 -0.765379 0.797798 39 31 30
-0.669486 -0.452256 0.704623 30 30 34
-0.634371 -0.55153 0.743705 30 23 22
-0.609694 -0.652029 0.763955 41 31 26
-0.315536 -0.637693 0.77421 125 101 82
-0.454953 -0.992225 0.849926 11 9 9
-0.488085 -1.06979 0.843323 16 13 13
-0.689696 -0.631114 1.72474 101 86 80
-0.689818 -0.453245 0.7257 27 29 35
-0.651239 -0.531692 0.743059 34 27 27
-0.609194 -0.611176 0.765723 34 27 28
-0.595847 -0.636648 0.769805 42 34 34
-0.308706 -0.627514 0.784225 203 153 105
0.0824354 -0.408852 1.13714 132 131 132
-0.708952 -0.451914 0.725198 33 35 39
-0.649392 -0.511357 0.744838 22 18 18
-0.469205 -0.655075 0.785753 222 162 103
-0.44909 -0.656416 0.785654 219 158 99
-0.368971 -0.637053 0.78548 234 168 107
-0.290336 -0.711553 0.803655 39 30 27
-0.291476 -0.729997 0.806291 38 31 28
-0.295421 -0.745095 0.806038 40 30 29
-0.0883829 -0.209685 1.30537 154 153 154
-0.256663 -0.290551 1.35013 100 93 94
-0.629766 -0.589742 0.762204 34 24 21
-0.591031 -0.652702 0.784884 122 93 68
-0.290428 -0.629148 0.789824 144 112 87
-0.29386 -0.66937 0.79315 48 38 35
-0.291661 -0.68814 0.807434 37 25 21
-0.749663 -0.43168 0.726073 53 54 56
-0.671895 -0.490378 0.743263 32 28 29
-0.728874 -0.710282 0.765929 37 31 31
-0.786198 -0.430392 0.749912 39 40 45
-0.694424 -0.436134 0.745555 20 24 34
-0.615996 -0.594466 0.78521 29 22 23
-0.27836 -0.724293 0.81527 39 32 28
-0.75087 -0.430971 0.745505 33 34 37
-0.62575 -0.570902 0.785396 22 18 20
-0.489232 -0.654372 0.805206 221 161 102
-0.468974 -0.655553 0.805335 220 159 100
-0.990679 -0.683345 1.46775 197 146 105
-0.430006 -0.653199 0.804552 220 158 99
-0.3889 -0.637042 0.805425 233 167 106
-0.369627 -0.632661 0.804733 234 170 107
-0.770075 -0.912304 0.808449 30 27 27
-0.272054 -0.70724 0.82326 34 24 21
-0.470802 -0.210827 1.6435 88 90 94
-1.00969 -0.671511 1.48488 190 156 130
-0.670211 -0.4721 0.766657 31 28 29
-0.593902 -0.650524 0.805492 42 33 30
-0.308555 -0.618244 0.806745 238 176 113
-0.255168 -0.38609 1.57818 102 95 97
-0.749562 -0.411805 0.749035 18 18 21
-0.688433 -0.45088 0.764247 40 36 36
-0.671835 -0.451856 0.765707 32 26 27
-0.633805 -0.536194 0.787341 33 27 29
-0.607834 -0.62979 0.803991 109 82 59
-0.588083 -0.624845 0.801368 216 156 96
-0.405163 -0.639503 0.810872 232 166 104
-0.273932 -0.672841 0.829557 47 37 32
-0.729755 -0.413938 0.747439 40 39 41
-0.691679 -0.431607 0.765215 37 36 40
-0.251313 -0.669997 0.821611 40 30 25
-0.257075 -0.686549 0.820828 40 30 25
-0.15089 -0.430354 1.00472 160 160 178
-0.729269 -0.412274 0.767006 38 35 38
-0.617773 -0.595374 0.804127 24 17 18
-0.734923 -0.292249 0.886299 49 54 62
-0.829758 -0.684494 1.14534 221 167 120
-0.668918 -0.470964 0.784516 33 32 34
-0.609369 -0.654649 0.803495 129 100 73
-0.596128 -0.655304 0.82204 97 77 63
-0.588883 -0.672332 0.825665 228 168 105
-0.548166 -0.650528 0.826835 215 155 101
-0.509169 -0.653259 0.826331 219 160 102
-0.449796 -0.653623 0.825684 220 158 99
-0.529414 -0.710394 1.45693 165 120 95
-0.729482 -0.612564 1.6485 79 73 72
-0.368762 -0.628051 0.825209 235 171 109
0.0476888 -1.1906 1.16202 87 85 88
-0.349153 -0.623563 0.823749 237 175 112
-0.864809 -0.684464 1.08382 207 155 108
-0.730343 -0.393525 0.771485 37 34 37
-0.689132 -0.446943 0.785063 39 34 36
-0.670133 -0.489657 0.786192 38 33 34
-0.647908 -0.531916 0.80616 28 20 20
-0.563623 -0.646308 0.82909 211 152 98
-0.424577 -0.639916 0.829591 232 168 106
-0.337841 -0.622091 0.818562 238 176 113
-0.682609 -0.626726 0.792023 37 29 33
-0.0464658 -1.1114 1.08361 55 55 58
-0.688274 -0.411282 0.787295 42 42 46
-0.687161 -0.430529 0.786269 40 39 44
-0.65023 -0.512455 0.80543 34 29 31
-0.649888 -0.550379 0.803262 36 24 19
-0.625347 -0.59056 0.827584 134 98 64
0.010555 -0.889851 1.14311 51 49 50
-0.485856 -0.231816 1.52958 66 68 76
-0.270183 -0.171354 1.36401 117 119 119
-0.769772 -0.410098 0.783885 36 36 39
-0.709645 -0.41053 0.784002 27 29 36
-0.655719 -0.49383 0.804478 28 27 29
-0.608187 -0.652381 0.842531 107 82 63
-0.589835 -0.653721 0.844671 216 155 101
-0.549767 -0.690901 0.703778 68 58 52
-0.588879 -0.673037 0.845787 230 169 105
-0.548286 -0.651361 0.845544 215 156 100
-0.948522 -0.672655 1.66685 179 146 125
-0.628185 -0.230658 1.70793 76 82 89
0.0263248 -0.550732 1.11111 162 166 172
-0.671042 -0.489859 0.808053 38 32 32
-0.636419 -0.554418 0.820489 17 13 15
-0.608822 -0.672486 0.845631 227 168 105
-0.568927 -0.673234 0.845331 232 171 106
-0.529201 -0.652685 0.845233 217 158 102
-0.489129 -0.65531 0.844877 217 156 98
-0.0031303 -0.390065 1.52861 72 79 93
-0.208879 -0.684606 0.966163 215 158 104
-0.0348755 -0.989665 1.07108 60 59 60
-0.640263 -0.544949 0.821242 17 12 16
-0.450726 -0.654893 0.844351 220 158 100
-0.430534 -0.639229 0.839565 232 168 105
-0.411137 -0.635741 0.838374 232 168 106
-0.688611 -0.431343 0.804983 66 66 71
-0.620475 -0.606301 0.837233 25 17 17
-0.367563 -0.625577 0.836874 235 172 110
-0.353104 -0.62251 0.835841 236 174 111
-0.709245 -0.913196 0.804757 33 26 24
-0.27041 -0.211232 1.34431 81 83 88
0.125324 -0.83182 1.11218 106 105 104
-0.688576 -0.633137 1.70423 91 77 72
-0.9917 -0.638557 1.61288 163 128 105
-0.549072 -0.649104 1.60642 145 144 148
-0.846756 -0.386341 0.943048 48 50 59
0.0882063 -0.189399 1.182 151 159 167
-0.367934 -0.609162 1.42556 102 91 87
-0.668845 -0.68689 0.925349 217 156 100
-0.0559575 -0.23561 1.64722 83 84 84
-0.329224 -0.672117 0.885388 223 162 100
0.124149 -0.849793 1.11303 117 117 116
0.0369307 -0.549485 1.13825 148 150 156
-0.544801 -0.552616 1.66064 55 51 51
-0.511164 -0.270915 1.64373 59 61 66
-0.172132 -1.13096 0.951595 59 58 61
0.0117339 -0.270721 1.16596 144 140 142
-0.12801 -0.372158 0.992101 158 160 160
-0.665363 -0.191758 1.78586 82 89 97
-0.130313 -0.408102 1.16406 229 226 237
-0.208105 -0.451321 1.44664 97 89 89
-0.769727 -0.991369 0.789324 39 36 38
-0.0814468 -0.44325 1.27153 122 120 129
0.114559 -0.428206 1.14407 135 135 138
-0.648734 -0.71749 1.48953 160 121 100
-0.828342 -0.612387 0.966199 52 48 49
-0.292086 -0.675941 1.24393 166 122 90
-0.109567 -0.254533 1.69118 48 54 61
-0.191595 -0.551023 1.06436 159 150 158
-0.309558 -0.675094 1.24546 171 127 95
-0.329053 -0.673969 1.06559 194 138 86
-0.528912 -0.686037 1.10537 224 166 111
-0.608096 -0.650168 0.704503 47 37 31
-0.669482 -0.65347 1.16546 243 243 246
-0.795783 -0.576269 0.811233 48 41 43
-0.168784 -1.06897 0.924114 72 70 70
-0.650406 -0.390887 1.76337 62 65 70
-0.848435 -0.683175 1.20682 224 170 123
-0.0518959 -0.930402 1.12628 72 68 70
-0.329098 -0.536228 1.30709 102 97 98
-0.184299 -0.450399 1.36936 109 96 97
-0.568998 -0.636079 1.28571 227 227 236
0.0583523 -0.224674 1.09295 131 124 125
-0.708159 -0.61058 1.82682 105 105 108
-0.0149998 -0.589099 1.07383 169 173 179
-0.472894 -0.330467 1.58311 48 49 54
-0.510018 -0.729523 0.66631 52 47 45
-0.375423 -0.409825 1.45964 37 35 39
-0.549295 -0.709749 0.684231 64 52 45
-0.889411 -0.672604 1.28539 213 163 121
-1.02867 -0.68935 1.38606 215 161 110
0.060083 -0.180655 1.17236 205 208 215
-0.569088 -0.728798 0.684675 62 50 44
-0.548966 -0.710256 1.50685 216 119 139
-0.630682 -0.652524 1.72764 84 73 70
-0.705331 -0.988396 0.711687 77 71 68
-0.608914 -0.649769 1.045 214 165 124
-0.228819 -0.351491 1.52646 140 135 136
-0.552879 -1.1144 0.774124 46 41 43
-0.0141423 -1.02975 1.12512 53 51 52
-0.646338 -1.06802 0.763734 29 26 28
-0.606903 -1.11115 0.767117 73 66 61
-0.567621 -1.07957 0.772946 71 64 64
-0.611153 -0.529578 1.70281 61 55 52
-0.665707 -0.472358 0.672933 34 35 41
-0.648474 -0.511046 0.68673 31 27 27
-0.58875 -1.07124 0.786226 48 41 38
-0.649448 -0.471658 0.686299 36 34 38
-0.646944 -0.569281 0.688313 40 33 32
-0.668635 -0.571907 0.703216 37 31 29
-0.667549 -0.591464 0.705564 35 29 28
-0.16943 -0.290929 1.36496 123 114 113
-0.554031 -0.972999 0.771598 22 19 19
-0.668692 -0.609495 0.706692 37 31 29
-1.16041 -0.640602 1.50815 126 85 115
-0.469891 -0.68806 0.744864 233 169 107
-0.571102 -1.02904 0.786289 17 14 15
-0.551068 -0.606688 1.52468 137 129 129
-0.710866 -0.610893 0.904517 114 93 77
-0.688364 -0.451281 0.689866 46 46 47
-0.668165 -0.629277 0.707935 34 28 28
-0.689389 -0.669615 0.729356 36 30 29
-0.522224 -1.06077 0.797262 59 51 50
-0.47117 -0.61153 1.60486 102 80 75
-0.519955 -1.07423 0.799653 58 50 49
-0.645407 -0.609682 0.727019 31 25 24
-0.967853 -0.652394 1.42686 191 181 177
-0.648373 -0.65163 0.726751 35 29 28
-0.686472 -0.692959 0.731822 38 32 31
-0.491037 -0.915251 0.787001 42 35 32
-0.669105 -0.6749 0.985546 229 170 110
-0.64943 -0.650915 1.68614 100 77 66
-0.542213 -0.725641 0.670466 100 87 80
-0.490792 -0.650785 1.60539 111 104 105
-0.648511 -0.67095 0.726889 33 26 24
-0.494034 -0.926177 0.791793 55 47 43
-0.0813414 -0.321052 1.70426 210 212 212
-0.646669 -0.650737 0.745971 48 38 34
-0.669263 -0.730518 0.744776 37 30 27
-0.495929 -0.950323 0.807736 50 42 39
-0.644994 -0.629425 0.747729 41 34 32
-0.648144 -0.7107 0.743944 40 32 28
-0.650112 -0.731705 0.747637 44 35 32
-0.68831 -0.77028 0.764902 47 39 34
-0.607332 -0.710492 0.747194 53 42 35
-0.488269 -0.911684 0.805938 49 41 39
-0.488329 -0.927779 0.806055 48 39 37
-0.647806 -0.589903 0.746487 36 30 30
-0.645811 -0.60951 0.747145 37 31 31
-0.650819 -0.730215 0.764557 55 44 40
-0.589377 -0.708244 0.766388 70 55 45
-0.549757 -0.688691 0.765351 219 159 105
-0.496046 -0.969235 0.810474 42 35 33
0.00826101 -1.09127 1.21962 50 49 50
-0.578491 -0.709467 0.777388 69 61 55
-0.665176 -0.547586 0.729428 35 29 30
-0.629104 -0.728153 0.765871 47 39 40
-0.72933 -0.451076 0.724141 44 44 47
-0.476688 -0.893092 0.811577 61 52 50
-0.491098 -0.950963 0.821843 39 31 28
-0.489129 -0.970151 0.825839 28 21 18
-0.747151 -0.449647 0.727115 56 56 58
-0.670722 -0.511338 0.743583 28 24 28
-0.668971 -0.531174 0.74508 31 26 28
-0.669243 -0.589431 0.747718 46 36 33
-0.649352 -0.631014 0.766599 41 33 31
-0.646924 -0.649264 0.767558 46 36 34
-0.265063 -0.470841 1.44623 81 68 66
-0.485519 -0.914623 0.821031 46 39 37
-0.630253 -0.410676 1.7449 60 62 68
-0.652087 -0.592244 0.762461 37 29 27
-0.474651 -0.896169 0.819578 59 51 49
-0.346327 -0.990887 0.981887 7 4 3
-0.690567 -0.471122 0.745362 32 30 33
-0.187019 -0.890657 0.963685 50 48 48
-0.670796 -0.570947 0.764136 32 26 27
-0.628552 -0.671653 0.784617 45 35 31
-0.630196 -0.689578 0.786187 46 37 33
-0.590413 -0.689414 0.786721 120 95 76
-0.664162 -0.609343 0.767936 40 32 32
-0.647865 -0.670517 0.786323 42 34 33
-0.506573 -0.95493 0.841447 54 44 41
-0.808352 -0.452001 0.748091 54 54 58
-0.471377 -0.61517 1.63942 88 68 66
-0.786482 -0.449761 0.750887 49 51 54
-0.769311 -0.453315 0.74816 54 54 57
-0.7289 -0.452391 0.746505 36 38 44
-0.671993 -0.53079 0.76383 40 32 29
-0.652571 -0.632447 0.784744 39 29 25
-0.328201 -0.270811 1.4056 42 45 51
-0.188914 -0.969893 0.984389 45 43 44
-0.568417 -0.230142 1.64699 102 107 113
-0.689121 -0.490493 0.746855 27 25 30
-0.672994 -0.592889 0.781553 35 27 26
-0.671199 -0.612178 0.784752 36 29 28
-0.646361 -0.68939 0.787653 45 37 36
-0.629756 -0.709153 0.804464 57 47 42
-0.750205 -0.629308 1.80546 136 134 117
-0.827722 -0.693019 1.36565 231 229 230
-0.00742634 -0.971053 1.20725 49 48 51
-0.248694 -0.590826 1.1467 151 119 123
-0.667422 -1.0511 0.746178 30 27 29
-0.708179 -0.470622 0.747632 34 33 36
-0.691572 -0.472205 0.763446 43 37 36
-0.690447 -0.490437 0.762747 33 29 31
-0.648761 -0.67205 0.80562 40 30 26
-0.748276 -0.600149 1.63426 121 106 94
-0.629922 -0.665606 1.2243 202 213 228
-0.727602 -0.449909 0.765454 36 35 39
-0.710921 -0.453309 0.764784 34 32 35
0.106828 -0.211156 1.09028 142 145 151
-0.653313 -0.653854 0.803608 37 27 24
-0.311263 -0.688751 0.809246 67 51 39
-0.326988 -0.731748 0.823998 43 34 31
-0.462089 -0.913699 0.845255 42 36 35
-0.488861 -1.0113 0.864368 13 9 8
-0.787039 -0.63615 1.52432 193 202 213
-0.0557506 -0.96879 1.05361 51 51 54
-0.0722662 -0.180837 1.35776 139 144 148
-0.770525 -0.451717 0.765587 36 37 41
-0.769914 -0.370546 0.786644 27 27 32
-0.691463 -0.552573 0.782428 33 27 29
-0.671157 -0.631935 0.802827 33 25 24
-0.669035 -0.650375 0.805341 35 26 25
-0.311379 -0.672858 0.808578 76 63 53
-0.427269 -0.849539 0.843408 18 10 9
-0.370285 -0.631416 1.50419 121 113 108
-0.488719 -0.972635 0.864719 27 21 20
-0.491261 -0.992074 0.868593 26 19 17
-0.428628 -0.688062 1.02453 213 155 98
-0.823856 -0.449473 0.767964 56 57 61
-0.68885 -0.508591 0.784919 35 30 30
-0.673239 -0.511006 0.782461 37 30 29
-0.688314 -0.533138 0.786066 32 26 24
-0.690517 -0.611462 0.803267 30 24 26
-0.288356 -0.252135 1.45061 65 67 73
-0.307348 -0.708977 0.822391 48 40 36
-0.329114 -0.231128 1.44456 47 50 56
-0.293202 -0.660069 1.03881 207 152 100
-0.227998 -0.451331 1.44626 88 78 77
-0.46496 -0.251629 1.51003 62 64 70
-0.670376 -1.03029 0.75824 26 23 26
-0.746684 -0.472362 0.710714 49 50 55
-0.333827 -0.409471 1.41925 37 36 42
-0.729666 -0.432155 0.76601 37 36 40
-0.709803 -0.470664 0.784434 37 35 38
-0.690952 -0.571324 0.80543 34 26 24
-0.668506 -0.670862 0.805594 37 29 29
-0.649122 -0.689438 0.825598 43 33 28
-0.608628 -0.671845 0.825661 226 167 104
-0.54912 -0.672651 0.825679 233 172 106
-0.529316 -0.671803 0.825753 233 172 106
-0.509254 -0.671146 0.825513 234 173 107
-0.468774 -0.671398 0.825579 231 168 103
-0.449087 -0.670917 0.825564 230 165 102
-0.409182 -0.671268 0.82556 234 172 107
-0.389003 -0.671437 0.825813 235 175 109
-0.368962 -0.671293 0.825606 235 175 109
-0.349195 -0.67139 0.825317 234 173 108
-0.479626 -0.957587 0.867036 44 37 34
-0.330316 -0.490099 1.40444 47 47 55
-0.651967 -0.51076 1.74341 37 40 45
-0.847463 -0.449812 0.774087 56 56 60
-0.728311 -0.450345 0.784862 35 33 35
-0.689629 -0.552875 0.805452 27 20 19
-0.669742 -0.650044 0.824836 35 26 23
-0.667826 -0.671363 0.826157 38 28 24
-0.846458 -0.450358 0.787243 55 56 61
-0.808738 -0.429723 0.784655 33 37 42
-0.788032 -0.43082 0.785243 32 33 39
-0.770844 -0.432139 0.785738 29 30 36
-0.748755 -0.431268 0.785832 35 35 38
-0.728535 -0.433289 0.784965 33 33 39
-0.688082 -0.529756 0.807693 27 22 23
-0.489326 -0.171762 1.585 96 99 101
-0.689227 -0.629893 0.806071 34 27 29
-0.672601 -0.632851 0.821724 40 30 26
-0.809316 -0.312155 0.846324 67 70 76
-0.709591 -0.491268 0.783912 39 35 37
-0.254895 -0.655535 1.26306 160 85 95
0.067353 -0.410577 1.14113 123 122 124
-0.690072 -0.610277 0.826521 31 22 20
-0.30734 -0.732926 0.843553 28 20 17
-0.251309 -0.330375 1.40742 89 83 85
-0.649872 -0.270586 1.72735 72 77 84
-0.287713 -0.212074 1.46837 99 100 101
-0.828171 -0.429782 0.785252 46 49 54
-0.71328 -0.472379 0.804039 34 32 36
-0.70861 -0.49083 0.805797 36 34 36
-0.690877 -0.492822 0.805406 40 35 37
-0.148996 -0.67315 0.965697 164 129 96
-0.669982 -0.689311 0.845582 38 28 23
-0.629 -0.68776 0.84593 145 110 80
-0.286494 -0.688192 0.841858 132 103 75
-0.306533 -0.710994 0.844272 58 50 46
-0.73071 -0.450136 0.803809 37 33 36
-0.729946 -0.470678 0.804558 35 32 34
-0.692345 -0.550052 0.825244 24 20 21
-0.668345 -0.652053 0.845193 46 36 32
-0.468934 -0.671057 0.845539 231 167 103
-0.448902 -0.670693 0.845531 231 167 104
-0.429131 -0.670714 0.845209 233 171 106
-0.409166 -0.670862 0.845658 235 174 108
-0.289217 -0.672262 0.845302 186 140 95
-0.0515817 -0.590949 1.04874 174 178 184
-0.810074 -0.309418 0.865298 64 68 75
-0.508984 -0.672421 0.985592 229 170 109
0.00796292 -0.211249 1.08413 129 121 122
-0.848233 -0.430107 0.804064 42 44 50
-0.807925 -0.429678 0.80458 27 29 35
-0.78783 -0.429779 0.805046 35 35 38
-0.768906 -0.430085 0.804197 34 32 35
-0.748968 -0.431885 0.80423 34 33 35
-0.609608 -0.390759 1.70568 54 57 62
-0.706745 -0.509167 0.80643 30 27 32
-0.689516 -0.631701 0.845733 30 21 19
-0.628669 -0.671967 0.846046 223 165 103
-0.223593 -1.1743 0.947518 68 66 69
-0.349131 -0.671431 0.845513 230 168 104
-0.329236 -0.671603 0.845274 227 165 102
-0.290159 -0.657544 0.845945 227 169 109
-0.709445 -0.510044 0.824994 29 26 30
-0.695347 -0.51055 0.81788 32 28 29
-0.308728 -0.657142 0.84608 232 171 108
-0.270642 -0.67348 0.847344 100 80 65
-0.0690723 -0.310922 1.26524 138 130 130
-0.289946 -0.291157 1.38509 49 50 57
-0.713132 -0.492209 0.823764 34 31 33
-0.748645 -0.451001 0.825848 31 30 35
-0.694138 -0.553205 0.84718 31 27 28
-0.688591 -0.652229 0.865163 34 25 23
-0.608895 -0.673335 0.865576 229 169 105
-0.589155 -0.673425 0.865687 230 169 105
-0.569074 -0.672956 0.865305 231 171 106
-0.548785 -0.672543 0.865468 232 172 107
-0.889668 -0.67113 1.60476 173 138 114
-0.80884 -0.430142 0.825523 35 35 38
-0.749467 -0.431295 0.825074 38 35 37
-0.710075 -0.531466 0.821793 37 30 29
-0.696391 -0.537285 0.840442 29 27 28
-0.709768 -0.592091 0.845725 32 24 22
-0.469254 -0.670989 0.86549 231 168 104
-0.448945 -0.671133 0.865717 233 171 107
-0.0529605 -0.197719 1.55952 90 92 90
-0.790342 -0.410833 0.825091 43 42 44
-0.711848 -0.51305 0.842718 34 32 35
-0.705652 -0.528106 0.845437 33 31 33
-0.70731 -0.611803 0.866323 31 22 19
-0.690019 -0.612638 0.865996 56 45 40
-0.409148 -0.671509 0.865632 234 173 109
-0.389248 -0.671951 0.865384 233 172 108
-0.369235 -0.67187 0.865318 228 167 103
-0.12707 -0.930618 1.00325 45 45 48
-0.248268 -0.531236 1.12669 177 163 159
-0.411345 -0.673401 1.3454 158 122 89
-0.8079 -0.40929 0.825659 37 38 41
-0.73065 -0.49009 0.844326 37 37 42
-0.711097 -0.574679 0.846969 31 26 29
-0.707571 -0.59094 0.866 33 26 24
-0.688163 -0.67059 0.886578 86 67 53
-0.668486 -0.672367 0.885977 204 152 97
-0.669494 -0.688162 0.884911 137 103 76
-0.329177 -0.657802 0.865074 230 168 108
-0.308279 -0.657872 0.864039 232 171 109
-0.290461 -0.65662 0.863556 232 171 109
-0.226491 -0.84944 0.95023 62 55 53
-0.726908 -0.509422 0.845582 30 29 34
-0.701872 -0.543871 0.842911 34 30 31
-0.689899 -0.565762 0.859374 91 72 62
-0.708553 -0.570726 0.86549 35 29 31
-0.690291 -0.689321 0.883553 58 47 41
-0.629065 -0.673787 0.885518 225 166 105
-0.839964 -0.424327 0.842393 32 37 42
-0.707054 -0.552525 0.86683 47 42 43
-0.688945 -0.55425 0.86642 141 110 88
-0.569089 -0.672804 0.885607 231 171 107
-0.00933764 -1.13107 1.20516 50 48 52
-0.809468 -0.412363 0.843822 47 46 48
-0.791146 -0.411518 0.845114 45 45 47
-0.768561 -0.411398 0.841072 39 36 40
-0.709564 -0.53048 0.861411 35 33 34
-0.513516 -0.63946 1.19034 153 138 134
-0.509016 -0.672773 0.885416 230 168 105
-0.489192 -0.672318 0.885341 231 168 104
-0.788733 -0.429705 0.845634 42 39 41
-0.768984 -0.449769 0.844305 29 29 34
-0.750436 -0.489619 0.846079 31 31 37
-0.687709 -0.687649 0.90569 125 95 69
-0.409157 -0.672154 0.885368 232 172 108
-0.408695 -0.658733 0.884581 222 162 103
-0.229241 -0.669858 1.1448 93 77 68
-0.508864 -0.270583 1.60558 56 60 65
-0.549286 -0.685511 1.14581 223 167 117
-0.83019 -0.589402 1.78466 87 86 92
-0.389764 -0.23116 1.48493 51 55 60
-0.627487 -0.189948 1.68394 92 98 105
-0.186625 -0.591484 1.04714 153 142 148
-0.866444 -0.491948 0.926793 46 44 47
-0.20996 -0.657181 0.907243 231 172 112
-0.601984 -1.02802 0.821272 31 22 18
-0.652112 -0.468758 1.76363 52 54 60
-0.248848 -0.389929 1.43243 85 78 80
-0.329311 -0.686317 1.08558 193 136 86
-0.789569 -0.716871 1.49176 183 191 204
-0.357428 -0.538119 1.32868 143 115 82
-0.588417 -0.65128 1.1866 209 215 223
-0.730477 -0.415387 0.725223 41 45 45
-0.651737 -0.531136 1.74535 70 67 67
-0.269135 -0.649741 1.14382 99 78 68
-0.669237 -0.685381 1.58357 149 110 87
-0.448124 -0.330859 1.5462 43 45 49
0.0832101 -0.894916 1.15519 92 88 90
-0.00687558 -0.993051 1.18308 51 50 54
-0.516002 -0.748021 0.668212 69 61 56
-0.206108 -0.431292 1.06735 184 182 197
-0.149545 -0.230096 1.40528 134 129 128
-0.108827 -0.393054 1.09205 228 232 255
-0.588843 -0.634548 1.14695 221 219 220
-0.148469 -0.751752 0.946682 78 72 70
-0.266077 -0.511294 1.18625 194 185 184
-0.210505 -0.249087 1.72375 53 61 70
-0.488914 -0.683972 0.864231 232 168 107
-0.25113 -0.331071 1.32019 82 72 72
-0.153857 -0.48521 1.36721 141 136 138
-0.529047 -0.67226 0.945129 228 167 106
-0.408612 -0.39045 1.48646 37 37 40
-0.532708 -0.530664 1.62623 55 46 49
-0.742936 -0.609653 0.9069 25 19 21
-0.447237 -0.251176 1.50837 56 58 65
-0.547843 -0.210775 1.66635 69 76 83
-0.769191 -0.451055 0.80463 33 32 35
-0.47248 -0.195425 1.68028 128 129 128
-0.0203233 -0.689889 1.09668 148 141 138
-0.449811 -0.17368 1.60398 95 98 101
-0.571288 -1.05578 0.810173 37 29 26
-0.215452 -0.656601 0.892425 215 163 111
0.0700944 -0.270985 1.12527 140 136 138
-0.527744 -0.714754 0.653964 94 80 74
-0.530872 -0.725532 0.654779 73 66 65
-0.329173 -0.155083 1.42654 172 173 171
-0.66935 -0.631043 0.747563 51 41 35
-0.728572 -0.701313 1.37892 223 223 234
-0.688528 -0.310997 1.80538 70 75 81
0.0655044 -0.831013 1.16121 93 89 91
-0.650941 -0.709252 0.824656 46 37 33
-0.450049 -0.688696 0.685977 53 42 37
-0.188449 -0.330845 1.44705 143 139 140
-0.547264 -0.691191 0.68812 65 54 47
-0.450641 -0.672123 0.688176 91 73 60
-0.283981 -0.432024 1.48096 64 57 58
-0.627801 -0.529964 1.68633 72 65 62
-0.452434 -0.669157 1.58066 157 127 111
-0.749881 -0.611487 1.38558 209 207 215
-0.629456 -0.635451 1.05099 208 192 185
-1.06811 -0.687542 1.40629 213 158 107
-0.729871 -0.751153 0.925959 35 23 15
-0.66807 -0.511503 0.670937 26 24 28
-0.690124 -0.52692 0.668701 32 30 35
-0.569772 -0.710038 0.702829 60 49 40
-0.269683 -0.429853 1.28633 87 74 71
-0.428628 -0.430752 1.50516 36 35 39
-0.389259 -0.370544 1.46527 37 37 41
-0.628749 -0.549816 0.686994 37 31 29
-0.686261 -0.602501 0.692097 9 8 15
-0.248758 -0.252813 1.38141 114 108 108
-0.589103 -0.673473 1.08538 225 171 118
-0.668384 -0.45113 0.686744 44 43 44
-0.630981 -0.531518 0.70549 34 27 27
-0.629384 -0.610401 0.706658 38 33 32
-0.888748 -0.637245 1.56628 163 125 100
-0.612601 -1.07092 0.767635 29 27 28
-0.166542 -0.197077 1.5728 60 67 75
-0.105745 -0.370863 1.28846 131 122 123
-0.688083 -0.770809 0.742891 32 26 26
-0.629871 -0.731299 0.746451 53 42 36
-0.345237 -0.751364 0.783978 60 51 48
-0.42847 -0.611705 1.49042 172 134 110
-0.709174 -0.431204 0.703775 78 78 77
-0.349773 -0.728373 0.784999 46 38 36
-0.532894 -0.196697 1.75599 126 126 124
-0.370126 -0.531684 1.34663 145 114 89
-0.65188 -0.55121 0.742962 40 32 30
-0.610345 -0.672856 0.765391 46 36 31
-0.311174 -0.290536 1.52193 87 89 98
0.0377082 -0.691091 1.13861 121 103 97
-0.631578 -0.633305 0.761479 40 31 28
-0.225064 -0.57081 1.10828 159 147 147
-0.191529 -0.289898 1.52208 128 122 122
-0.332402 -0.671994 0.789404 77 64 55
-0.354086 -0.748624 0.803076 25 16 14
-0.689994 -0.409829 0.804003 58 56 59
-0.689146 -0.593202 1.76593 106 105 108
-0.687543 -0.529598 0.748974 37 31 33
-0.568718 -0.687441 0.785762 196 144 100
-0.669081 -0.667963 1.48658 172 143 127
-0.667495 -0.311765 1.74376 71 75 82
-0.69074 -0.531278 0.764343 29 25 28
-0.667995 -0.689659 0.80733 40 32 33
-0.688143 -0.510321 1.76617 60 60 65
-0.685314 -0.569249 0.769282 35 29 30
-0.608146 -0.570677 1.77515 68 64 65
-0.749969 -0.928977 0.803454 33 30 30
-0.805875 -0.428998 0.752061 53 54 58
-0.709008 -0.490899 0.7662 28 27 32
-0.706257 -0.528874 0.76885 35 31 32
-0.684322 -0.608366 0.789911 34 27 29
-0.588955 -0.687571 0.80481 162 122 89
-0.31274 -0.706853 0.809606 43 33 29
-0.7887 -0.649979 1.58727 179 180 187
-0.710656 -0.531341 0.784499 31 27 30
-0.71176 -0.512163 0.782564 31 27 31
-0.704906 -0.569224 0.789043 29 25 27
-0.704291 -0.58582 0.79198 37 32 32
-0.57079 -0.688208 0.805722 225 164 106
-0.730643 -0.472442 0.785065 30 29 35
-0.725768 -0.529049 0.788559 32 28 31
-0.708394 -0.589971 0.805859 30 25 27
-0.704535 -0.609813 0.810089 31 25 28
-0.669894 -0.691019 0.825949 37 28 27
-0.589265 -0.687751 0.825388 219 159 104
-0.549017 -0.390742 1.62536 66 68 72
-0.78797 -0.627379 1.72537 89 82 80
-0.729513 -0.531063 0.803779 26 23 28
-0.728124 -0.550443 0.807203 26 22 26
-0.732539 -0.512047 0.802647 29 26 30
-0.725662 -0.570093 0.809312 32 27 29
-0.711892 -0.611475 0.823077 28 22 24
-0.709247 -0.630847 0.825218 31 25 28
-0.748995 -0.470143 0.787699 34 33 37
-0.72645 -0.586187 0.808953 32 28 30
-0.728442 -0.59057 0.825389 23 19 23
-0.691423 -0.711217 0.843043 38 29 28
-0.668386 -0.708101 0.845353 45 36 32
-0.809343 -0.515016 0.772672 118 120 119
-0.652802 -0.706507 0.844688 74 58 50
-0.409586 -0.685395 1.34562 177 132 96
-0.844411 -0.410316 0.790273 56 58 61
-0.731261 -0.571188 0.823225 25 21 24
-0.688696 -0.670704 0.8447 39 28 24
-0.689277 -0.689114 0.845615 36 27 24
-0.591633 -0.690538 0.843078 225 164 106
-0.843288 -0.393965 0.792127 57 59 63
-0.828367 -0.408485 0.802723 35 38 43
-0.748031 -0.490826 0.806532 26 25 31
-0.729978 -0.530644 0.82424 44 38 35
-0.711845 -0.651679 0.842861 31 22 23
-0.489809 -0.658001 1.3447 167 124 96
-0.710066 -0.672057 0.844592 31 23 24
-0.128663 -0.470384 1.42094 121 111 109
-0.867673 -0.334519 0.791306 65 69 77
-0.843281 -0.368108 0.794263 38 43 51
-0.843185 -0.377083 0.806473 89 89 91
-0.730566 -0.511495 0.827551 41 35 35
-0.744957 -0.569554 0.829681 24 20 24
-0.707213 -0.631304 0.844178 32 23 22
-0.708747 -0.690267 0.846164 33 25 26
-0.582966 -0.593374 0.674489 41 29 25
-0.827126 -0.371153 0.80538 52 54 59
-0.750792 -0.531449 0.822721 30 27 31
-0.747954 -0.549771 0.825728 27 24 28
-0.749136 -0.591068 0.845222 22 18 23
-0.709802 -0.690125 0.864202 35 25 22
-0.788289 -0.312129 0.827175 62 66 72
