ply
format ascii 1.0
comment Created by Open3D
element vertex 1337
property double x
property double y
property double z
property uchar red
property uchar green
property uchar blue
end_header
1.10069 -0.743145 2.25117 200 157 104
1.10004 -0.763755 2.25222 181 142 97
1.08051 -0.783432 2.22956 149 119 83
1.21881 -0.686664 2.37114 152 123 76
1.19829 -0.684346 2.35182 150 119 76
1.19706 -0.883478 2.2334 99 47 16
1.13953 -0.702494 2.29234 180 140 94
1.12009 -0.707383 2.27346 213 167 108
1.12075 -0.725158 2.27274 195 153 101
1.12007 -0.723842 2.25315 193 150 101
1.10134 -0.745451 2.23459 201 158 106
1.29951 -0.703377 2.43415 123 101 59
1.27928 -0.703808 2.41206 150 122 73
1.21755 -0.684606 2.35303 165 133 82
1.19967 -0.686234 2.33344 174 138 88
1.15838 -0.686183 2.29522 181 142 97
1.27876 -0.702946 2.39282 140 112 70
1.23842 -0.703727 2.35178 157 122 82
1.21897 -0.68695 2.33555 172 138 87
1.15679 -0.686148 2.2723 199 152 103
1.12073 -0.726966 2.2333 196 152 102
1.11905 -0.74318 2.23238 184 144 96
1.10046 -0.763753 2.21319 180 139 102
1.2994 -0.703212 2.39255 157 128 77
1.13988 -0.724882 2.23335 204 160 105
1.11547 -0.797483 2.20878 105 77 54
1.3789 -0.702071 2.45258 133 108 62
1.35884 -0.702833 2.43361 127 104 61
1.27761 -0.705074 2.37246 158 124 80
1.15865 -0.704893 2.25191 195 151 99
1.13813 -0.741785 2.23197 200 157 101
1.1196 -0.783675 2.21064 170 132 93
1.45903 -0.703205 2.51372 140 114 72
1.41859 -0.700049 2.47421 135 110 65
1.33968 -0.703371 2.41466 128 106 63
1.32159 -0.704683 2.39509 139 114 67
1.27897 -0.703959 2.35089 162 126 80
1.12208 -0.776642 2.19662 89 41 28
1.1595 -0.82198 2.21344 99 43 15
1.37988 -0.701078 2.43308 149 120 69
1.31907 -0.704693 2.37308 149 120 75
1.23923 -0.688873 2.31113 176 140 88
1.17962 -0.690651 2.2545 175 135 88
1.14229 -0.781829 2.19558 136 90 59
1.1875 -0.842066 2.23726 111 45 18
1.37898 -0.703771 2.41362 149 120 71
1.28051 -0.704453 2.33268 148 114 73
1.1603 -0.725548 2.2143 194 152 101
1.66186 -0.685587 2.25507 127 100 52
1.17379 -0.857606 2.20547 110 49 20
1.47978 -0.701931 2.49298 148 122 82
1.43834 -0.703007 2.45365 144 119 75
1.39975 -0.70287 2.41283 131 107 62
1.35848 -0.704286 2.37195 141 114 67
1.33885 -0.706042 2.37271 158 128 78
1.25918 -0.688891 2.29352 144 115 72
1.17977 -0.801866 2.2135 125 76 46
1.43812 -0.702568 2.434 148 122 73
1.41832 -0.703982 2.41392 143 116 66
1.39897 -0.704028 2.39276 150 122 73
1.38077 -0.702945 2.39253 130 106 62
1.29821 -0.703764 2.31413 172 133 86
1.15986 -0.729442 2.19498 198 156 101
1.16102 -0.781296 2.19526 160 112 73
1.18024 -0.804979 2.19951 118 81 51
1.3201 -0.824612 1.97378 117 52 43
1.37964 -0.703967 2.37306 139 113 67
1.3599 -0.704984 2.35239 146 118 73
1.31948 -0.704636 2.31425 158 125 79
1.18081 -0.72642 2.19386 183 141 94
1.17956 -0.743824 2.19175 174 137 93
1.47701 -0.701065 2.45016 133 108 67
1.44031 -0.702417 2.4113 136 112 66
1.41925 -0.70382 2.39345 154 125 73
1.37844 -0.703717 2.35385 160 130 77
1.35899 -0.704515 2.33245 154 124 77
1.33996 -0.708139 2.33351 158 126 82
1.29925 -0.703207 2.29292 172 132 87
1.48077 -0.703252 2.43311 140 115 69
1.24371 -0.666605 2.23208 133 98 53
1.17988 -0.743623 2.17366 163 129 87
1.5176 -0.703845 2.45089 149 121 78
1.49999 -0.702342 2.43118 140 114 68
1.45853 -0.703073 2.39391 145 119 67
1.39978 -0.703694 2.35134 139 113 66
1.37954 -0.705027 2.33271 158 127 78
1.22065 -0.705917 2.19526 204 154 103
1.19954 -0.744913 2.17433 171 134 90
1.24461 -0.6703 2.21316 174 127 77
1.21892 -0.686649 2.19305 203 149 102
1.21959 -0.725459 2.19277 176 135 84
1.20097 -0.7267 2.17413 181 139 89
1.5389 -0.702903 2.43136 138 111 67
1.51892 -0.703509 2.41253 139 113 63
1.4581 -0.703739 2.3715 142 116 65
1.43855 -0.704522 2.35095 150 123 70
1.33902 -0.703328 2.27262 170 132 85
1.55888 -0.701476 2.43323 147 117 74
1.50086 -0.702243 2.39302 143 118 70
1.39941 -0.70605 2.31219 163 131 83
1.28021 -0.669459 2.21447 184 142 90
1.23992 -0.704551 2.19302 159 119 73
1.23951 -0.703629 2.17424 161 119 75
1.22063 -0.74415 2.15515 144 111 72
1.53991 -0.70532 2.41216 144 113 67
1.25779 -0.68326 2.1929 156 117 69
1.24072 -0.80218 2.15267 56 22 16
1.22035 -0.803602 2.13433 68 46 38
1.57984 -0.703071 2.4329 136 108 66
1.55926 -0.70222 2.4128 141 113 66
1.26085 -0.682869 2.17352 139 98 51
1.23863 -0.725332 2.15251 155 117 70
1.23885 -0.742961 2.15243 145 109 71
1.22658 -0.763879 2.13555 46 14 14
1.57886 -0.701379 2.41332 137 108 63
1.55808 -0.702959 2.39178 139 110 65
1.51905 -0.701802 2.37499 138 113 65
1.49984 -0.702686 2.35262 140 113 64
1.4792 -0.705109 2.33335 152 124 70
1.27639 -0.663639 2.18974 167 120 69
1.2398 -0.7634 2.13405 69 40 29
1.59883 -0.701653 2.41166 147 116 71
1.51888 -0.704231 2.35147 139 113 65
1.28113 -0.685086 2.17288 134 97 54
1.2593 -0.743037 2.15202 141 106 71
1.22012 -0.783275 2.11105 70 23 21
1.57998 -0.701907 2.3932 141 112 66
1.56144 -0.702849 2.37282 140 111 64
1.2996 -0.6678 2.17284 134 94 51
1.2803 -0.685271 2.15484 112 69 37
1.27973 -0.823601 2.03314 80 25 17
1.27884 -0.704051 2.15148 139 95 53
1.22228 -0.784538 2.09325 66 23 18
1.20138 -0.785121 2.09001 103 45 43
1.61906 -0.700747 2.395 131 105 65
1.59787 -0.699181 2.39075 143 115 71
1.5794 -0.702307 2.37119 142 113 67
1.51944 -0.704281 2.3329 148 119 68
1.27746 -0.724197 2.13498 121 73 44
1.26018 -0.784389 2.13367 57 27 19
1.25824 -0.782765 2.11275 36 7 6
1.18719 -0.789101 2.06996 96 55 53
1.41821 -0.72118 2.23269 157 110 72
1.31712 -0.659796 2.17116 103 66 28
1.24005 -0.781455 2.01309 81 30 26
1.2783 -0.70237 2.13227 121 63 37
1.2778 -0.744384 2.13263 103 64 42
1.2584 -0.763574 2.11392 45 20 12
1.63718 -0.698682 2.39143 143 113 70
1.53883 -0.706 2.31113 138 111 63
1.27823 -0.765621 2.11275 40 13 9
1.27896 -0.783985 2.11264 33 7 5
1.25909 -0.783075 2.09378 38 8 6
1.59908 -0.701304 2.35297 139 113 69
1.57931 -0.703416 2.33458 141 114 66
1.2955 -0.68231 2.13187 123 73 46
1.30156 -0.724928 2.13248 128 65 46
1.29782 -0.742268 2.13176 111 59 41
1.61777 -0.700572 2.35106 150 119 76
1.55996 -0.704365 2.31362 143 116 70
1.33948 -0.660303 2.15103 113 71 34
1.32109 -0.705129 2.13103 129 64 47
1.20126 -0.784877 2.03365 119 51 45
1.61861 -0.700673 2.33445 146 118 76
1.55813 -0.703909 2.29318 146 118 67
1.31862 -0.722564 2.11357 135 63 48
1.29773 -0.763305 2.09256 35 7 6
1.29926 -0.785012 2.09317 54 19 15
1.21756 -0.783303 2.03269 94 40 34
1.15964 -0.637108 2.52514 99 78 48
1.65866 -0.700583 2.35254 142 114 73
1.63787 -0.699854 2.3323 139 113 71
1.44039 -0.721591 2.21242 134 82 56
1.27672 -0.744288 2.07198 77 31 23
1.59793 -0.703027 2.29292 141 114 66
1.3598 -0.661539 2.15178 117 76 36
1.36039 -0.662039 2.13277 121 66 37
1.33927 -0.70455 2.11371 141 67 51
1.2801 -0.723393 2.07189 117 51 37
1.27904 -0.76474 2.07232 37 10 8
1.25847 -0.782384 2.05224 43 10 7
1.23928 -0.783187 2.03343 82 33 28
1.6593 -0.700479 2.33301 145 116 74
1.58108 -0.703939 2.27377 147 118 71
1.35989 -0.684887 2.1128 139 76 54
1.29976 -0.702144 2.07212 136 59 47
1.28088 -0.724473 2.05205 113 46 34
1.27957 -0.764055 2.0533 55 20 15
1.59921 -0.705039 2.27149 145 116 68
1.39843 -0.686563 2.13476 152 88 64
1.37891 -0.682746 2.13168 151 86 62
1.32209 -0.701935 2.07355 137 62 48
1.26059 -0.762675 2.05324 28 4 3
1.26011 -0.78321 2.03278 49 12 10
1.37825 -0.682485 2.11313 146 77 57
1.39835 -0.683014 2.11261 148 78 61
1.36176 -0.682148 2.09278 136 69 49
1.33975 -0.684773 2.07263 139 63 50
1.31817 -0.682207 2.05394 127 52 41
1.27945 -0.703745 2.03236 101 36 23
1.26149 -0.72339 2.01228 85 32 26
1.24407 -0.771957 1.99727 93 35 36
1.41856 -0.661983 1.89095 113 43 25
1.73773 -0.685219 2.31209 136 111 72
1.47954 -0.703957 2.1523 142 80 58
1.22433 -0.772603 1.97467 79 16 16
1.38051 -0.683559 2.07279 130 65 46
1.31898 -0.682572 2.0311 132 56 45
1.76078 -0.681591 2.31321 139 114 75
1.61729 -0.723133 2.21102 170 131 89
1.47742 -0.630598 2.21251 95 71 22
1.29852 -0.684105 2.01196 113 42 29
1.7414 -0.681762 2.29383 136 111 69
1.41924 -0.683925 2.07611 141 79 59
1.39814 -0.679094 2.07234 148 79 60
1.3406 -0.684231 2.03432 117 46 33
1.24803 -0.696969 1.9733 97 34 34
1.23546 -0.723004 1.95139 92 29 20
1.47975 -0.703233 2.11305 161 104 73
1.35941 -0.685777 2.03208 115 44 29
1.33668 -0.68194 2.01062 120 50 35
1.26051 -0.68406 1.97296 113 42 32
1.24127 -0.704105 1.95203 90 27 16
1.63864 -0.722699 2.19399 158 121 82
1.39815 -0.680343 2.05089 137 66 51
1.35799 -0.662164 2.03331 132 60 44
1.3189 -0.684357 1.99251 117 45 29
1.29967 -0.663123 1.99179 109 37 23
1.7792 -0.684263 2.27248 127 100 53
1.49888 -0.681287 2.0916 144 103 62
1.37936 -0.665182 2.03279 138 66 50
1.35753 -0.66132 2.01287 143 69 52
1.79862 -0.685683 2.27092 126 99 54
1.64039 -0.722213 2.17135 172 130 89
1.61828 -0.718427 2.15151 171 127 90
1.47904 -0.6849 2.07376 148 95 66
1.41719 -0.680589 2.03037 141 62 50
1.38033 -0.663844 2.01394 134 61 46
1.34044 -0.664253 1.99309 117 46 31
1.24645 -0.713099 1.93504 56 13 11
1.7985 -0.683374 2.25151 122 95 51
1.77915 -0.682906 2.25393 123 97 52
1.63738 -0.716282 2.15391 168 128 91
1.47874 -0.682903 2.05284 152 87 61
1.44279 -0.684361 2.03301 145 79 57
1.28098 -0.683384 1.93307 132 55 46
1.81758 -0.685455 2.25376 121 93 48
1.79754 -0.685535 2.23009 125 96 51
1.39958 -0.663061 2.01227 125 61 39
1.33718 -0.663732 1.97276 115 44 30
1.32205 -0.644741 1.9548 114 46 35
1.3194 -0.66328 1.95363 129 54 42
1.28151 -0.663864 1.93188 126 51 41
1.81822 -0.683648 2.2344 128 100 54
1.22458 -0.628954 2.07429 103 41 16
1.68071 -0.723049 2.15285 165 127 83
1.65935 -0.716466 2.13439 201 154 108
1.49983 -0.683711 2.05375 144 93 59
1.46201 -0.685892 2.03156 144 72 53
1.37806 -0.659348 1.99075 141 70 54
1.36051 -0.64391 1.97153 124 51 38
1.45782 -0.686733 2.01302 143 69 52
1.31915 -0.663782 1.93233 121 53 40
1.81915 -0.683553 2.21301 120 93 48
1.69807 -0.723232 2.13176 145 107 73
1.67998 -0.719277 2.13417 159 120 82
1.65762 -0.718726 2.11291 156 109 76
1.47979 -0.68296 2.01372 142 70 51
1.35856 -0.643402 1.95048 116 44 31
1.67415 -0.718435 2.10896 143 107 72
1.53921 -0.681767 2.05351 166 120 76
1.49752 -0.681031 2.01307 140 68 48
1.39636 -0.659344 1.96993 127 59 39
1.31962 -0.662458 1.9126 127 55 44
1.70131 -0.721324 2.11731 166 121 84
1.45857 -0.682615 1.99166 134 61 43
1.37996 -0.643411 1.95318 125 50 37
1.3205 -0.644974 1.91223 131 55 40
1.66005 -0.718221 2.09326 156 111 76
1.49919 -0.682554 1.9922 136 65 47
1.41874 -0.645206 1.95331 144 72 53
1.35918 -0.641504 1.91412 125 50 42
1.31819 -0.663451 1.89229 132 54 45
1.31845 -0.683235 1.89284 124 51 40
1.7204 -0.720827 2.09037 151 112 77
1.68105 -0.716432 2.07391 152 109 71
1.30675 -0.686981 1.87923 105 45 38
1.43912 -0.66248 1.95149 125 57 33
1.32202 -0.663642 1.87328 99 37 28
1.40114 -0.676937 2.33396 149 122 66
1.55782 -0.664156 1.99225 129 78 45
1.5198 -0.681613 1.9738 137 65 45
1.40026 -0.643547 1.9124 112 39 23
1.34146 -0.663004 1.87496 125 51 42
1.32074 -0.69722 1.87423 57 17 14
1.5784 -0.667182 1.99241 159 115 72
1.53909 -0.682093 1.9718 135 66 46
1.41778 -0.641334 1.90949 124 48 33
1.39891 -0.643037 1.89339 118 45 32
1.3389 -0.684549 1.85598 68 26 21
1.32434 -0.68938 1.85936 91 35 27
1.55948 -0.682958 1.97326 132 66 42
1.40068 -0.624209 1.89358 134 58 43
1.37953 -0.623471 1.89269 141 60 48
1.37949 -0.643318 1.87141 129 56 42
1.34094 -0.699098 1.85296 96 35 34
1.5993 -0.663113 1.97282 132 91 52
1.51835 -0.681914 1.95177 131 65 42
1.3605 -0.66632 1.85265 118 49 39
1.58022 -0.682454 1.95353 136 71 48
1.53866 -0.681831 1.93187 139 72 47
1.45794 -0.64302 1.91114 138 65 48
1.42023 -0.624012 1.89269 126 54 38
1.38 -0.663644 1.85354 126 52 40
1.61862 -0.682727 1.97259 140 88 57
1.3616 -0.683501 1.83817 69 35 28
1.65873 -0.682289 1.9727 139 97 56
1.55841 -0.683922 1.93322 131 64 43
1.4394 -0.62386 1.87461 124 55 37
1.57975 -0.683942 1.93395 134 67 44
1.47882 -0.641804 1.89164 140 65 47
1.38042 -0.664661 1.83554 113 50 38
1.37876 -0.680609 1.83434 113 53 41
1.67988 -0.683134 1.9743 142 107 63
1.45796 -0.643211 1.87295 121 50 33
1.41896 -0.623883 1.85341 138 62 48
1.39921 -0.642834 1.83141 128 60 44
1.35333 -0.803545 2.00945 51 15 10
1.30005 -0.643908 1.93419 138 61 47
1.53456 -1.08093 1.85049 99 76 66
1.45888 -0.661552 2.15121 125 85 44
1.19798 -0.941595 2.4641 73 73 59
1.2243 -0.689395 1.97016 83 14 4
1.33992 -0.70073 2.52951 124 103 63
1.1379 -0.801516 2.29108 155 117 88
1.41838 -0.723875 2.21337 151 106 73
1.3441 -0.737699 2.49086 146 110 69
1.19946 -0.722773 2.35226 183 142 95
1.20164 -0.743785 2.35397 161 122 85
1.13889 -0.76204 2.29243 170 128 91
1.11806 -0.761413 2.27226 169 132 92
1.11749 -0.762592 2.2522 185 145 98
1.17803 -0.721161 2.33275 164 127 86
1.17925 -0.723607 2.31312 195 152 103
1.13882 -0.743621 2.27313 179 140 94
1.17961 -0.704614 2.31273 189 147 97
1.15916 -0.724111 2.27327 186 146 95
1.08137 -0.761983 2.21455 193 151 102
1.19891 -0.702479 2.31142 189 146 95
1.17963 -0.705312 2.29338 189 148 94
1.19911 -0.705134 2.29348 179 137 90
1.15942 -0.724699 2.25219 185 145 95
1.10263 -0.746824 2.19569 182 140 90
1.21945 -0.702458 2.29261 184 142 93
1.18062 -0.705052 2.25405 160 124 81
1.17913 -0.723675 2.25294 173 136 91
1.15859 -0.742441 2.2326 181 142 96
1.23915 -0.701553 2.29165 185 142 92
1.21919 -0.705974 2.27304 184 141 90
1.20007 -0.70572 2.25246 191 147 89
1.17925 -0.72423 2.23256 193 151 96
1.12354 -0.762092 2.18037 125 73 45
1.29857 -0.719068 2.35285 153 121 78
1.46004 -0.737483 2.4691 140 112 68
1.25922 -0.702733 2.29323 172 132 86
1.2399 -0.70595 2.27291 169 128 83
1.46084 -0.738035 2.45111 129 102 61
1.23844 -0.705202 2.25234 171 130 80
1.20064 -0.704217 2.23312 181 138 87
1.45659 -0.739733 2.4319 142 111 69
1.44033 -0.746505 2.41392 156 121 83
1.21756 -0.705179 2.2337 156 120 77
1.47599 -0.736624 2.43253 165 129 81
1.45952 -0.740198 2.4145 160 125 80
1.21899 -0.72318 2.21195 186 143 87
1.19965 -0.741129 2.19238 190 148 95
1.27845 -0.703965 2.25275 164 124 77
1.26051 -0.70446 2.2339 159 119 72
1.45986 -0.745702 2.39361 200 156 109
1.23871 -0.702686 2.21164 172 128 76
1.20428 -0.779193 2.1761 137 112 79
1.47956 -0.740564 2.39371 141 110 71
1.2788 -0.70508 2.2322 165 124 77
1.23767 -0.723179 2.19228 158 121 75
1.47802 -0.745268 2.37442 173 135 95
1.20041 -0.74374 2.15794 147 117 79
1.30042 -0.844482 2.2106 64 29 20
1.32027 -0.702516 2.25346 185 142 93
1.25732 -0.704048 2.19271 164 122 72
1.48064 -0.743466 2.35162 183 140 95
1.25922 -0.722517 2.17217 160 120 73
1.3394 -0.703146 2.23294 164 125 82
1.23986 -0.801547 2.13262 73 27 22
1.26096 -0.783337 2.15123 53 27 19
1.35973 -0.70245 2.23298 180 140 92
1.29948 -0.705427 2.17316 159 117 73
1.25987 -0.804178 2.1331 49 14 10
1.20826 -0.817338 2.08885 87 48 39
1.22724 -0.841543 2.10764 57 46 35
1.51834 -0.739512 2.33263 187 144 99
1.3381 -0.688009 2.19378 178 137 92
1.25995 -0.803902 2.11336 58 17 14
1.20421 -0.819162 2.07054 90 55 49
1.22012 -0.841238 2.08833 47 33 20
1.50025 -0.738408 2.30476 170 128 90
1.31956 -0.704242 2.17455 154 105 69
1.21983 -0.835333 2.07123 71 39 27
1.25992 -0.880297 2.08998 63 22 13
1.54128 -0.739391 2.31341 154 119 81
1.34153 -0.689453 2.1723 166 116 80
1.31955 -0.704257 2.15264 136 76 53
1.27834 -0.801035 2.11249 41 9 8
1.19984 -0.802545 2.05246 98 44 37
1.20351 -0.819422 2.05167 80 49 46
1.29276 -0.905593 2.10961 55 24 14
1.29642 -0.764171 2.13035 73 34 24
1.29809 -0.78423 2.11293 40 11 9
1.29824 -0.801112 2.11205 32 4 4
1.24073 -0.804403 2.07304 92 36 28
1.21867 -0.802962 2.05215 105 44 35
1.53858 -0.737765 2.29411 169 123 86
1.27952 -0.8022 2.09219 39 8 7
1.23929 -0.80461 2.05394 107 45 36
1.19978 -0.80183 2.03271 111 50 42
1.2042 -0.818661 2.0335 81 38 33
1.55767 -0.738092 2.29257 187 140 99
1.37972 -0.687008 2.17321 154 109 73
1.35763 -0.683994 2.15154 149 97 64
1.34209 -0.725356 2.13263 136 62 50
1.21991 -0.80548 2.03316 102 42 34
1.5421 -0.736647 2.27613 188 140 99
1.35888 -0.704249 2.15367 133 62 47
1.31869 -0.783368 2.11308 46 15 11
1.43663 -0.719754 2.15091 134 60 46
1.31964 -0.801638 2.09253 40 8 7
1.20857 -0.83475 2.02 83 35 34
1.29688 -0.701148 2.11175 119 57 43
1.31889 -0.783353 2.0925 51 17 13
1.23869 -0.80135 2.03266 107 45 36
1.21959 -0.80366 2.01272 107 45 40
1.22096 -0.839761 2.01181 88 46 37
1.5787 -0.736964 2.27501 158 117 82
1.43963 -0.702703 2.19222 152 98 67
1.37789 -0.700945 2.13284 139 65 49
1.2608 -0.804469 2.03413 84 31 24
1.45889 -0.716901 2.19076 143 84 60
1.29938 -0.68275 2.07298 132 56 43
1.29821 -0.764403 2.05108 42 10 7
1.31884 -0.78406 2.07262 53 17 13
1.29893 -0.801662 2.05227 46 9 6
1.27836 -0.802786 2.03263 64 18 13
1.24095 -0.843059 2.0124 79 42 34
1.31777 -0.802799 2.05274 67 20 14
1.259 -0.802634 2.0124 77 24 17
1.67942 -0.725213 2.31456 155 121 75
1.58241 -0.734469 2.25319 202 157 110
1.29768 -0.721003 2.05265 126 53 40
1.27925 -0.743303 2.03165 73 26 19
1.29878 -0.785136 2.05091 51 14 10
1.23908 -0.823693 1.99254 93 33 24
1.28131 -0.879042 2.01268 60 26 19
1.61802 -0.723234 2.25181 139 109 65
1.29821 -0.763415 2.03198 53 13 9
1.24011 -0.823933 1.97377 100 44 37
1.6588 -0.722422 2.27086 151 119 74
1.6386 -0.724904 2.25337 154 120 74
1.33889 -0.663224 2.07173 130 61 42
1.29904 -0.803159 2.01342 84 28 20
1.68031 -0.720498 2.27312 134 104 63
1.45896 -0.703886 2.13266 149 93 65
1.35756 -0.662126 2.07222 117 54 33
1.31884 -0.702697 2.03223 118 47 33
1.29961 -0.74323 2.01278 76 25 17
1.29998 -0.763221 2.01281 59 18 13
1.31612 -0.802124 2.01065 66 20 14
1.27983 -0.783588 1.99234 84 29 24
1.25944 -0.803826 1.97311 132 59 50
1.64049 -0.72559 2.23215 170 133 88
1.43973 -0.704638 2.11318 148 101 70
1.35865 -0.66177 2.05384 133 63 45
1.28152 -0.764697 1.99226 70 22 16
1.47933 -0.703729 2.13198 140 79 57
1.45923 -0.703165 2.11156 145 95 68
1.33799 -0.663868 2.03133 143 66 52
1.31584 -0.701578 2.01294 113 42 27
1.27929 -0.722947 1.99191 100 38 28
1.26281 -0.741465 1.97664 89 32 23
1.69593 -0.719559 2.25085 161 126 79
1.30022 -0.702749 1.99473 117 45 31
1.28189 -0.762663 1.97459 51 13 10
1.66099 -0.72439 2.21218 168 131 86
1.2989 -0.784543 1.97193 78 28 25
1.28067 -0.804119 1.9542 128 57 48
1.26171 -0.823295 1.93537 74 38 33
1.3579 -0.644406 2.01173 121 53 35
1.29764 -0.703783 1.97066 134 58 45
1.27954 -0.822955 1.95276 134 62 52
1.26356 -0.836659 1.93194 39 23 20
1.66109 -0.723071 2.1934 183 143 96
1.33869 -0.645507 2.01362 113 46 26
1.33807 -0.644727 1.99305 122 44 32
1.29622 -0.722309 1.97004 121 53 41
1.29914 -0.723997 1.95273 113 49 39
1.29999 -0.74232 1.95405 80 29 23
1.28235 -0.806192 1.93611 143 66 57
1.28007 -0.822195 1.93329 127 62 53
1.51925 -0.722428 2.09134 134 56 45
1.30103 -0.704712 1.9545 138 62 48
1.69866 -0.725535 2.19304 155 121 80
1.48013 -0.704746 2.05351 149 79 58
1.31777 -0.683758 1.95194 132 55 43
1.3179 -0.70349 1.95172 135 58 44
1.73767 -0.723316 2.21364 148 116 71
1.55706 -0.719798 2.09162 145 82 61
1.51968 -0.721477 2.07106 138 60 50
1.30072 -0.824352 1.91449 124 62 55
1.28531 -0.838177 1.91303 52 37 34
1.53896 -0.722193 2.07234 139 68 52
1.31986 -0.723497 1.93244 120 53 43
1.73744 -0.721817 2.17194 141 109 67
1.7002 -0.727521 2.14888 150 114 79
1.53954 -0.701518 2.07214 138 77 55
1.43895 -0.664602 2.01293 122 58 34
1.37975 -0.644513 1.97531 134 57 44
1.30143 -0.826294 1.89722 83 51 48
1.55846 -0.702108 2.05239 147 81 59
1.21858 -0.722795 2.51326 52 49 39
1.33776 -0.701981 1.93287 133 57 43
1.39971 -0.645223 1.97351 129 56 37
1.35722 -0.664271 1.9503 106 40 25
1.33847 -0.722474 1.93229 119 52 38
1.33934 -0.723305 1.91346 116 51 41
1.3415 -0.784194 1.91538 98 39 33
1.3585 -0.68231 1.93273 123 51 36
1.35915 -0.783869 1.91225 73 24 19
1.5976 -0.701297 2.05305 162 108 73
1.55896 -0.701635 2.03247 138 88 63
1.35831 -0.804561 1.91191 109 47 38
1.32541 -0.825457 1.88084 97 45 38
1.54018 -0.702763 2.0118 140 65 50
1.35785 -0.722505 1.91141 114 51 39
1.34067 -0.837738 1.87654 95 43 40
1.3772 -0.662573 1.92992 101 35 20
1.37936 -0.682961 1.91305 109 41 28
1.57909 -0.702799 2.01175 153 98 70
1.37904 -0.764258 1.89337 73 23 19
1.37905 -0.783228 1.89253 77 26 20
1.37975 -0.803314 1.89311 88 33 24
1.36044 -0.804359 1.87403 97 37 29
1.35966 -0.824122 1.87368 92 38 30
1.35927 -0.840962 1.8736 78 30 24
1.59851 -0.701737 2.01195 145 91 65
1.56043 -0.700532 1.99513 140 75 54
1.41865 -0.640774 1.93171 128 53 38
1.37802 -0.743885 1.89061 85 32 25
1.29682 -0.862516 2.05143 89 30 17
1.39765 -0.662137 1.91043 96 30 17
1.37968 -0.84302 1.87335 89 33 24
1.439 -0.64431 1.93144 131 62 43
1.38029 -0.742712 1.87516 98 36 30
1.38195 -0.763893 1.87408 91 30 23
1.38132 -0.840658 1.85543 100 43 36
1.61913 -0.702845 1.99243 149 96 66
1.41827 -0.624568 1.91168 119 49 28
1.39836 -0.703863 1.87246 116 51 40
1.3982 -0.744239 1.87406 90 36 28
1.39878 -0.763809 1.87461 93 35 27
1.3985 -0.803383 1.87335 113 46 35
1.38029 -0.822846 1.85703 103 43 34
1.45792 -0.661672 2.1898 133 103 51
1.65809 -0.70109 2.01032 132 91 59
1.39886 -0.843778 1.85789 88 37 27
1.52079 -0.665615 1.93283 126 60 39
1.42017 -0.645123 1.89443 114 43 25
1.4186 -0.663801 1.87505 123 49 34
1.41837 -0.763626 1.87345 73 25 19
1.45873 -0.641561 1.89216 125 54 36
1.4203 -0.642672 1.8747 127 53 38
1.41907 -0.683338 1.87259 122 50 33
1.43859 -0.76587 1.87208 58 21 14
1.41877 -0.786652 1.85624 83 36 27
1.43283 -0.846802 1.85558 76 36 26
1.67966 -0.701608 1.99223 158 103 71
1.60009 -0.703935 1.95311 152 91 63
1.51758 -0.661918 1.9107 118 55 30
1.41752 -0.703813 1.85266 119 54 41
1.47963 -0.807047 1.87697 56 32 22
1.49914 -0.823032 1.89005 39 20 11
1.45994 -0.823612 1.85998 57 24 10
1.65712 -0.628639 2.33347 115 94 53
1.23941 -0.525956 2.49095 86 86 68
1.24141 -0.54762 2.55107 100 88 67
1.47916 -0.982192 1.86988 81 34 21
1.65959 -0.639857 2.37076 100 78 31
1.27594 -0.585122 2.61228 141 131 111
1.16317 -0.710139 2.47485 139 134 129
1.19978 -0.763103 2.51008 113 110 101
1.15612 -0.661292 2.46655 152 146 142
1.19759 -0.80311 2.49079 78 76 66
1.20298 -0.823925 2.48837 88 85 76
1.21837 -0.86197 2.49276 81 79 67
1.20106 -0.923664 2.46749 64 63 51
1.20038 -0.942505 2.45158 64 61 52
1.17863 -0.722711 2.45315 55 56 46
1.18307 -0.743906 2.45427 67 66 51
1.19794 -0.842514 2.47114 89 86 75
1.21689 -0.864853 2.47282 99 94 81
1.2592 -0.584341 2.57162 87 75 59
1.23584 -0.621793 2.53239 44 33 21
1.19727 -0.703507 2.47197 18 20 18
1.18707 -0.764854 2.45296 66 63 50
1.19974 -0.90521 2.45204 72 68 55
1.18001 -0.727078 2.43105 65 64 49
1.18078 -0.755335 2.43418 62 57 47
1.18169 -0.805895 2.43166 68 64 50
1.16001 -0.664451 2.41262 24 24 23
1.16179 -0.68213 2.40887 36 35 29
1.16125 -0.664973 2.3913 39 35 29
1.16043 -0.683583 2.39169 49 46 35
1.16342 -0.706149 2.39328 73 67 45
1.31391 -0.583331 2.55771 102 89 58
1.20247 -0.525915 2.45042 50 49 44
1.16171 -0.67262 2.38125 58 52 42
1.15985 -0.721731 2.37172 116 93 59
1.15845 -0.744174 2.37036 100 83 58
1.17235 -0.640548 2.3878 24 19 18
1.17006 -0.640274 2.38164 47 41 33
1.16167 -0.685028 2.35337 152 120 77
1.13985 -0.744815 2.33345 131 104 68
1.13915 -0.762814 2.33164 103 81 58
1.12412 -0.822448 2.30693 100 71 51
1.13366 -0.820815 2.29012 44 24 18
1.19691 -0.668794 2.35658 161 125 88
1.15909 -0.743603 2.31298 178 140 99
1.13994 -0.784126 2.27231 195 147 106
1.23861 -0.721817 2.37233 183 142 93
1.19965 -0.723401 2.332 191 147 98
1.13922 -0.763733 2.27139 197 151 110
1.41915 -0.720686 2.53473 131 103 63
1.25993 -0.722654 2.37268 151 120 78
1.19841 -0.722825 2.31299 190 146 97
1.42074 -0.682955 2.57198 131 110 65
1.27918 -0.722314 2.37392 161 125 83
1.19869 -0.742792 2.2917 189 144 99
1.23926 -0.925497 2.30585 100 47 18
1.23945 -0.96443 2.29355 100 44 13
1.41862 -0.72328 2.49122 129 101 63
1.14048 -0.782688 2.21515 135 91 60
1.17971 -0.762831 2.25326 192 145 103
1.15531 -0.820275 2.23252 103 61 40
1.25829 -0.722443 2.33285 192 150 100
1.15927 -0.78154 2.21497 126 78 48
1.3223 -0.733935 2.36573 188 138 96
1.25929 -0.723641 2.31209 190 145 97
1.23951 -0.722172 2.29243 177 135 89
1.23879 -0.741017 2.29157 159 122 83
1.17915 -0.761905 2.23111 178 136 98
1.25936 -0.724241 2.29272 174 131 85
1.23912 -0.743889 2.27156 187 142 96
1.21914 -0.7601 2.25153 185 141 96
1.1993 -0.76326 2.23294 182 139 101
1.23919 -0.743313 2.25209 194 148 95
1.19865 -0.762245 2.21239 160 125 90
1.18037 -0.781898 2.21291 107 67 40
1.26413 -0.965069 2.2562 66 62 51
1.27856 -0.722725 2.29226 189 144 95
1.22095 -0.762981 2.23274 186 144 100
1.2791 -0.725062 2.27363 173 130 83
1.25917 -0.742804 2.25329 174 131 84
1.2183 -0.762986 2.21248 168 131 93
1.27825 -0.742605 2.27243 155 116 78
1.19767 -0.779532 2.19094 100 84 60
1.33941 -0.720747 2.29219 161 124 77
1.31881 -0.722099 2.29148 165 127 83
1.27906 -0.742653 2.23138 185 140 93
1.23736 -0.763222 2.19324 149 118 87
1.33799 -0.722194 2.27188 178 136 88
1.29979 -0.721345 2.25255 173 130 83
1.29932 -0.744537 2.23425 173 129 86
1.27751 -0.762101 2.21181 166 127 85
1.2381 -0.779923 2.17068 70 44 33
1.33995 -0.722084 2.25267 164 123 79
1.31876 -0.721873 2.23156 151 112 71
1.25913 -0.764094 2.17222 112 81 58
1.31804 -0.741945 2.21096 165 122 79
1.27992 -0.741303 2.19133 157 118 74
1.53844 -0.701847 2.39443 136 110 62
1.31889 -0.722065 2.21249 150 111 70
1.29902 -0.742407 2.19248 179 134 90
1.27867 -0.762566 2.17267 130 96 68
1.25877 -0.764516 2.15093 84 59 40
1.35908 -0.720901 2.23269 166 123 78
1.33898 -0.722695 2.21249 145 106 65
1.27952 -0.763339 2.15586 91 62 42
1.33932 -0.74263 2.21297 142 103 64
1.31892 -0.745274 2.17281 142 96 63
1.29824 -0.743245 2.1724 152 110 72
1.27972 -0.783091 2.15107 39 16 11
1.21967 -0.765955 2.10692 56 19 16
1.22116 -0.762549 2.09148 52 16 16
1.35817 -0.722112 2.21325 143 101 64
1.24095 -0.762699 2.11288 52 24 17
1.37792 -0.721683 2.21286 149 99 64
1.33862 -0.744276 2.17113 138 87 59
1.3984 -0.72337 2.21346 150 100 68
1.31831 -0.74506 2.15412 111 67 44
1.25839 -0.761767 2.09296 27 5 3
1.22213 -0.765813 2.07243 75 26 26
1.35866 -0.724759 2.17215 118 66 46
1.33977 -0.743497 2.15377 113 57 40
1.35773 -0.74127 2.15327 123 57 43
1.33876 -0.742573 2.13252 129 60 45
1.31986 -0.939694 2.09205 73 36 29
1.5385 -0.70292 2.29174 145 118 68
1.39793 -0.718925 2.1729 129 62 46
1.35795 -0.724747 2.15358 128 60 47
1.31864 -0.761272 2.1107 70 28 22
1.23928 -0.763089 2.05374 46 10 10
1.49819 -0.704267 2.25318 142 114 69
1.27678 -0.680802 2.0925 124 53 37
1.23907 -0.684411 2.07046 123 53 36
1.41952 -0.717543 2.17277 137 69 52
1.54003 -0.704716 2.25092 142 115 66
1.51966 -0.704584 2.23209 159 129 76
1.45972 -0.702279 2.19288 148 99 68
1.39964 -0.701609 2.15312 171 119 85
1.27821 -0.640603 2.07049 133 64 45
1.25821 -0.663301 2.05277 134 58 45
1.24047 -0.702931 2.03313 123 56 43
1.29959 -0.664278 2.05273 125 53 36
1.54037 -0.702525 2.23318 144 116 71
1.47792 -0.703274 2.19127 142 91 60
1.45914 -0.702615 2.17358 139 80 58
1.25792 -0.64442 2.05205 130 57 41
1.24189 -0.663058 2.03374 131 57 41
1.51929 -0.704107 2.21168 149 112 71
1.49947 -0.703507 2.19467 156 115 75
1.45855 -0.721881 2.17085 144 86 65
1.24201 -0.720924 2.01284 90 38 28
1.69951 -0.684767 2.33356 127 103 62
1.47884 -0.702612 2.17212 157 102 70
1.45874 -0.724533 2.15349 144 72 56
1.24326 -0.66483 2.01429 128 53 39
1.71772 -0.683927 2.33034 134 108 67
1.69755 -0.683956 2.31139 128 102 57
1.67903 -0.683578 2.31464 122 101 58
1.57983 -0.704208 2.23247 146 118 70
1.53898 -0.704484 2.19348 154 115 74
1.51757 -0.703102 2.19264 150 113 73
1.47722 -0.721942 2.15202 160 101 74
1.25955 -0.663212 2.014 130 55 42
1.2465 -0.739946 1.99858 24 3 3
1.51736 -0.701423 2.17177 150 108 70
1.27957 -0.622982 2.03142 128 58 38
1.25792 -0.663442 1.99267 126 53 41
1.7193 -0.68215 2.31356 130 106 66
1.70089 -0.683216 2.29426 126 100 56
1.67872 -0.683224 2.27265 132 105 58
1.64086 -0.685618 2.25328 122 99 54
1.53733 -0.70354 2.1709 159 120 78
1.27879 -0.623812 2.0131 119 48 29
1.55886 -0.702209 2.17438 147 114 71
1.52105 -0.702581 2.15324 159 109 73
1.2625 -0.625669 2.0143 133 58 42
1.26138 -0.644102 1.99406 134 57 44
1.69812 -0.68381 2.27261 123 98 54
1.68012 -0.684874 2.25223 126 100 52
1.66005 -0.684408 2.23352 135 107 56
1.26252 -0.664053 1.97523 120 46 34
1.23047 -0.658625 1.96515 76 7 2
1.63763 -0.686137 2.21223 135 108 57
1.55858 -0.702631 2.15314 157 112 74
1.51937 -0.700924 2.13234 151 100 69
1.71848 -0.682498 2.25323 130 104 55
1.69849 -0.683178 2.2336 124 98 51
1.53851 -0.702265 2.13437 142 97 65
1.51899 -0.703664 2.11489 139 74 55
1.3003 -0.624559 1.99359 122 48 33
1.26443 -0.626704 1.97122 123 43 38
1.73842 -0.682642 2.25314 122 99 52
1.65904 -0.685358 2.19339 113 88 42
1.63981 -0.684258 2.19144 137 110 60
1.59652 -0.70375 2.1526 149 110 69
1.57739 -0.704371 2.14992 149 107 70
1.40048 -0.66559 2.05241 125 60 40
1.73702 -0.682719 2.23333 123 98 54
1.71686 -0.684329 2.23232 122 96 51
1.69889 -0.682797 2.21086 131 104 55
1.5391 -0.702915 2.11301 159 103 71
1.31751 -0.622818 1.9913 127 53 38
1.67749 -0.683847 2.19208 128 101 52
1.66037 -0.684042 2.17321 130 103 54
1.638 -0.686226 2.17194 127 102 54
1.70052 -0.680981 2.1926 124 98 50
1.51914 -0.703758 2.07117 156 102 72
1.50096 -0.703773 2.07488 165 113 79
1.77928 -0.682826 2.23433 119 95 48
1.75852 -0.682633 2.2132 122 95 49
1.71881 -0.68241 2.19326 121 96 49
1.73843 -0.682019 2.19268 128 101 53
1.71984 -0.678893 2.17502 130 104 54
1.67881 -0.681886 2.15256 126 100 53
1.64015 -0.684802 2.13296 141 112 62
1.77868 -0.683708 2.21252 125 98 51
1.6398 -0.64207 2.19232 98 73 21
1.73884 -0.682612 2.17041 121 96 48
1.70073 -0.681521 2.15216 123 97 47
1.63807 -0.684864 2.11082 137 109 58
1.59761 -0.702675 2.09066 153 103 71
1.39501 -0.686707 2.39119 148 122 69
1.66101 -0.682499 2.11214 122 97 49
1.63943 -0.684627 2.09377 125 100 54
1.61822 -0.685799 2.09367 141 113 63
1.27465 -0.617697 1.89318 145 64 56
1.6973 -0.680076 2.13209 133 106 56
1.68209 -0.682022 2.11335 128 101 51
1.59971 -0.686816 2.07323 141 108 64
1.57735 -0.682705 2.05091 134 98 55
1.69952 -0.679992 2.11159 115 90 43
1.65836 -0.683164 2.09005 127 99 52
1.63884 -0.683804 2.07283 133 106 59
1.27834 -0.6113 1.88809 141 63 56
1.71919 -0.679187 2.11159 124 97 50
1.57961 -0.682789 2.03124 151 99 62
1.65702 -0.681965 2.07138 140 113 62
1.63901 -0.686366 2.05166 143 112 68
1.61927 -0.686182 2.05205 136 105 62
1.62033 -0.684261 2.0328 139 100 61
1.34049 -0.590043 1.89298 133 56 45
1.37799 -0.607135 1.91212 146 76 58
1.2917 -0.608583 1.86307 144 62 57
1.18666 -0.776799 2.42913 69 65 43
1.69687 -0.680418 2.05134 135 107 59
1.29537 -0.609853 1.85404 140 59 56
1.43935 -0.625246 1.91338 121 50 33
1.67894 -0.680395 2.032 130 104 56
1.53831 -0.663491 1.95286 127 64 40
1.45774 -0.642508 1.93214 134 64 43
1.70089 -0.679226 2.0332 131 104 57
1.45839 -0.624199 1.91178 120 50 34
1.3444 -0.715106 2.53231 110 93 47
1.35503 -0.584593 1.86987 120 50 35
1.45666 -0.624002 1.83281 141 78 52
1.29826 -0.666439 2.13153 132 83 50
1.12633 -0.637161 2.42258 203 197 193
1.49926 -0.883979 1.93261 67 26 10
1.24173 -0.663195 2.62992 97 75 48
1.2404 -0.683627 2.61381 94 76 54
1.18141 -0.917587 2.5069 94 93 85
1.44063 -0.644172 2.01335 124 63 34
1.21471 -0.742377 2.55194 123 120 111
1.26309 -0.596357 2.62494 148 111 84
1.27067 -0.639106 2.63007 126 104 80
1.22202 -0.705861 2.57062 143 136 125
1.24147 -0.622154 2.57398 129 113 95
1.16753 -0.587017 2.48793 137 121 118
1.15526 -0.666389 2.4599 196 188 187
1.14144 -0.719398 2.43162 89 86 76
1.13927 -0.741854 2.40955 67 67 51
1.26154 -0.563565 2.5563 58 54 42
1.24033 -0.582947 2.5514 75 64 48
1.19821 -0.584746 2.47322 34 32 27
1.13916 -0.682437 2.41211 50 49 39
1.14287 -0.705147 2.39565 64 64 47
1.13822 -0.74211 2.39243 63 60 47
1.27798 -0.543191 2.55273 73 71 59
1.27934 -0.582483 2.54942 48 42 29
1.19781 -0.623582 2.47071 27 26 25
1.19842 -0.644139 2.47121 25 27 25
1.14121 -0.644982 2.4134 33 32 26
1.13993 -0.726007 2.37181 80 71 53
1.13453 -0.740386 2.3738 69 66 49
1.2778 -0.561064 2.54965 55 51 39
1.27816 -0.561541 2.53267 49 44 32
1.25753 -0.562522 2.51289 32 30 26
1.14294 -0.661981 2.37769 56 50 41
1.12546 -0.744861 2.35337 68 62 47
1.1274 -0.748222 2.33347 94 77 53
1.12255 -0.762873 2.33118 82 73 55
1.11711 -0.80305 2.30974 130 105 73
1.25453 -0.523383 2.49643 89 91 79
1.13662 -0.682213 2.34495 109 93 65
1.13889 -0.682846 2.33331 141 116 75
1.1196 -0.742353 2.31311 113 93 64
1.11852 -0.700513 2.30942 118 90 58
1.12265 -0.724428 2.31029 149 118 77
1.10267 -0.738934 2.29066 100 77 55
1.10257 -0.744404 2.27215 171 135 92
1.10083 -0.763444 2.27176 150 119 82
1.08783 -0.78094 2.27003 64 40 35
1.12043 -0.703047 2.29297 175 137 90
1.14431 -0.669789 2.3196 143 102 68
1.46012 -0.744953 2.03136 133 59 46
1.17692 -0.669883 2.33807 134 105 67
1.2357 -0.982234 2.25489 100 80 70
1.39753 -0.684934 2.51202 124 101 60
1.37976 -0.686664 2.51133 135 110 65
1.31836 -0.683609 2.43468 147 119 66
1.29811 -0.684125 2.41652 140 113 65
1.27922 -0.686724 2.41403 128 103 59
1.1552 -0.839253 2.25901 75 65 59
1.43857 -0.683705 2.55112 133 112 70
1.41852 -0.686929 2.51297 135 111 65
1.15908 -0.782171 2.25135 163 121 90
1.19913 -0.72263 2.29178 172 134 90
1.15773 -0.80133 2.23387 117 68 43
1.21851 -0.722105 2.29286 182 140 92
1.2075 -0.849549 2.2678 76 36 27
1.23858 -0.702545 2.31181 183 141 91
1.17717 -0.800007 2.23048 107 52 27
1.19814 -0.741982 2.25284 200 154 104
1.19852 -0.782537 2.2304 118 81 53
1.23894 -0.722519 2.27198 167 126 84
1.22004 -0.741958 2.25325 185 143 96
1.20294 -0.801776 2.22995 100 71 42
1.41607 -0.883848 1.95298 80 27 14
1.2393 -0.72093 2.25159 168 128 80
1.22088 -0.796562 2.20736 80 70 53
1.2983 -0.703458 2.27162 170 131 85
1.27857 -0.719859 2.25148 166 124 80
1.24185 -0.779355 2.19309 85 71 50
1.23847 -0.795678 2.19491 78 67 49
1.31903 -0.703392 2.27288 177 137 89
1.26004 -0.744767 2.21347 179 135 90
1.29879 -0.721513 2.23233 164 122 78
1.28483 -0.862621 2.19244 62 31 19
1.28256 -0.823026 2.18726 63 31 24
1.27932 -0.843737 2.17242 72 34 25
1.27726 -0.860945 2.17286 66 35 23
1.33865 -0.703129 2.2528 165 129 84
1.28005 -0.783371 2.17327 62 38 28
1.41798 -0.705212 2.29191 142 115 69
1.29854 -0.761465 2.19175 161 122 84
1.29746 -0.801512 2.17127 38 13 9
1.29937 -0.820477 2.17307 40 9 9
1.27608 -0.842895 2.15219 81 34 24
1.27635 -0.864409 2.15428 77 37 24
1.43832 -0.70381 2.2921 164 133 82
1.31881 -0.723556 2.19348 161 118 73
1.29844 -0.783177 2.1717 45 23 17
1.28074 -0.82323 2.15284 73 25 23
1.29677 -0.801157 2.15282 34 6 5
1.25683 -0.844224 2.11309 100 47 38
1.26314 -0.862768 2.11254 88 44 31
1.34076 -0.703727 2.19234 160 115 77
1.33817 -0.723736 2.19348 139 94 60
1.31795 -0.782954 2.16898 49 26 16
1.31821 -0.783064 2.15283 51 21 15
1.31996 -0.805372 2.15317 30 4 3
1.29946 -0.820665 2.13344 45 12 11
1.28169 -0.886241 2.11291 68 37 27
1.60191 -0.641356 2.35277 100 77 28
1.37793 -0.743788 2.06928 125 51 40
1.45961 -0.70265 2.27447 136 110 66
1.37948 -0.702421 2.21418 166 126 86
1.31621 -0.823497 2.15336 29 5 3
1.5002 -0.704332 2.29262 150 122 71
1.47965 -0.70563 2.27279 162 130 81
1.42096 -0.705179 2.23174 158 117 76
1.33864 -0.762326 2.15173 103 57 39
1.33716 -0.783201 2.15105 42 16 12
1.38003 -0.703106 2.19214 163 110 77
1.33926 -0.804368 2.13371 34 6 5
1.3333 -0.824426 2.12957 29 4 3
1.25962 -0.862312 2.07236 94 44 34
1.28502 -0.905363 2.09221 66 24 15
1.46163 -0.940108 1.84853 88 35 22
1.37771 -0.70243 2.17278 151 101 72
1.35512 -0.761746 2.15301 108 56 39
1.35685 -0.798973 2.15099 38 8 7
1.2795 -0.842009 2.07374 113 48 38
1.27863 -0.883364 2.07228 89 41 29
1.29983 -0.921192 2.07509 47 25 18
1.35914 -0.743497 2.13319 130 59 44
1.33848 -0.820363 2.11348 32 4 4
1.25823 -0.843279 2.05215 105 43 31
1.25791 -0.863921 2.05136 84 35 25
1.31401 -0.935926 2.07129 28 14 7
1.45834 -0.702919 2.21233 154 111 71
1.15819 -0.742988 2.35169 96 75 50
1.41863 -0.685802 2.19112 165 126 75
1.37855 -0.701826 2.1528 135 72 52
1.29926 -0.683671 2.11244 125 58 41
1.25789 -0.704699 2.07211 109 42 25
1.3385 -0.804622 2.11345 31 4 3
1.29632 -0.821629 2.07082 71 22 18
1.28184 -0.866189 2.05582 81 30 19
1.41936 -0.684363 2.17277 163 127 79
1.27917 -0.662881 2.09262 126 57 38
1.28041 -0.663458 2.07301 133 59 43
1.32143 -0.823313 2.07199 69 21 17
1.27818 -0.84398 2.0323 95 34 24
1.28048 -0.883133 2.03282 57 26 18
1.43864 -0.68392 2.17306 140 112 66
1.25949 -0.683992 2.05208 128 54 38
1.33567 -0.821813 2.07411 57 14 11
1.29957 -0.82106 2.05342 68 19 13
1.33681 -0.802687 2.07424 52 12 9
1.3364 -0.823508 2.05291 63 19 16
1.31913 -0.821426 2.03395 92 33 24
1.29633 -0.822568 2.0316 97 34 22
1.24093 -0.744636 2.13698 114 83 55
1.36044 -0.662744 2.09337 137 74 49
1.29855 -0.822855 2.01088 103 38 26
1.49973 -0.687684 2.31192 147 118 65
1.31731 -0.641631 2.05212 120 52 32
1.28078 -0.862571 1.99277 96 49 38
1.2989 -0.862882 1.99142 113 53 42
1.29978 -0.880283 1.99557 68 35 26
1.72107 -0.725146 2.31454 143 111 69
1.37977 -0.664512 2.09175 131 72 46
1.25897 -0.703892 1.99182 109 43 33
1.29913 -0.823878 1.99208 116 51 41
1.73983 -0.723441 2.31397 156 123 81
1.69966 -0.724125 2.29218 134 103 61
1.29857 -0.624639 2.03129 128 54 39
1.29902 -0.783501 1.99148 60 16 13
1.30184 -0.893664 1.99574 12 5 3
1.7175 -0.723274 2.29452 152 120 75
1.34633 -0.915054 1.9979 37 21 18
1.71881 -0.72398 2.27326 145 112 69
1.41832 -0.662851 2.07275 125 66 39
1.28014 -0.642778 1.99305 105 35 22
1.29819 -0.764969 1.9924 58 17 13
1.32118 -0.880751 1.97283 84 42 34
1.35791 -0.903963 1.99291 37 19 11
1.76036 -0.718863 2.27323 152 117 73
1.48032 -0.681643 2.09357 147 103 69
1.27884 -0.704153 1.95181 136 63 49
1.27901 -0.722384 1.95403 117 51 39
1.2831 -0.739103 1.95566 127 59 45
1.31846 -0.782257 1.97199 51 12 9
1.33808 -0.823242 1.97082 105 43 32
1.53941 -0.745847 2.43317 150 120 70
1.33889 -0.843494 1.97128 126 54 42
1.26323 -0.64386 1.95269 116 39 28
1.33958 -0.784032 1.97426 49 11 8
1.3403 -0.844422 1.95256 124 57 45
1.33937 -0.879719 1.9538 101 52 42
1.36002 -0.88202 1.95343 77 42 35
1.53913 -0.684722 2.11324 151 120 68
1.4601 -0.661127 2.07429 122 68 39
1.39852 -0.643575 2.03295 130 62 40
1.31986 -0.623605 1.97345 128 52 39
1.27896 -0.643469 1.95304 130 53 39
1.28173 -0.703228 1.93293 118 49 36
1.28267 -0.717057 1.93675 103 40 29
1.33727 -0.764944 1.95133 51 12 9
1.3391 -0.802523 1.9527 82 30 23
1.2379 -0.703249 2.06974 99 41 28
1.35781 -0.843804 1.9528 133 59 47
1.36351 -0.899541 1.95515 56 32 26
1.53879 -0.684526 2.09273 128 99 56
1.4796 -0.662709 2.05271 129 66 42
1.35846 -0.624649 1.99027 125 48 33
1.28031 -0.644876 1.93374 130 52 42
1.35848 -0.80137 1.95306 81 29 22
1.55939 -0.683939 2.09369 141 112 63
1.5192 -0.682997 2.07192 147 107 69
1.43851 -0.663402 2.03205 125 64 38
1.37658 -0.89577 1.94262 75 61 62
1.39937 -0.644141 1.99182 127 60 39
1.29818 -0.606368 1.93227 151 64 60
1.3012 -0.719393 1.91556 88 31 23
1.37943 -0.843068 1.93271 126 56 44
1.37925 -0.881974 1.9342 81 49 43
1.52104 -1.18586 1.86619 97 60 45
1.47781 -0.662844 2.03174 123 62 35
1.41932 -0.644032 1.99221 133 61 42
1.28519 -0.629947 1.92138 145 65 58
1.2863 -0.64408 1.91813 134 57 47
1.28518 -0.664248 1.91717 108 42 29
1.32384 -0.740132 1.91872 105 42 34
1.37866 -0.821312 1.93454 106 44 34
1.47844 -0.660455 2.014 142 84 54
1.32094 -0.60317 1.9328 151 71 58
1.30055 -0.62354 1.91278 119 47 40
1.30581 -0.608868 1.91373 137 58 53
1.35714 -0.764019 1.93001 44 8 5
1.39967 -0.862433 1.9132 106 45 36
1.44039 -0.658081 2.25067 105 80 31
1.45717 -0.647228 1.99351 122 57 32
1.37833 -0.624072 1.95218 125 49 33
1.31905 -0.600579 1.91247 130 52 42
1.32114 -0.719828 1.89448 81 24 17
1.37763 -0.78327 1.91195 63 18 14
1.39836 -0.804149 1.91299 77 24 16
1.39937 -0.842416 1.91273 107 45 34
1.55921 -0.666485 2.03144 146 103 63
1.51976 -0.66287 2.01188 125 72 38
1.50054 -0.664211 2.01305 130 66 40
1.39958 -0.623773 1.95246 127 51 36
1.33868 -0.601336 1.91358 137 63 47
1.30571 -0.623176 1.90047 119 48 45
1.30614 -0.645683 1.8971 113 47 33
1.31704 -0.642232 1.89126 127 53 42
1.14697 -0.688667 2.26052 171 123 88
1.49865 -0.662375 1.99245 135 73 46
1.32078 -0.60477 1.89367 127 49 41
1.31804 -0.623192 1.89149 111 43 34
1.39899 -0.783752 1.91194 62 16 11
1.5169 -0.664644 1.99078 139 70 50
1.47763 -0.647432 1.97529 140 75 50
1.41872 -0.862153 1.89245 97 36 25
1.41852 -0.884537 1.89097 85 36 26
1.43914 -0.901121 1.89323 79 39 32
1.5356 -0.96778 1.88073 91 53 40
1.33827 -0.602568 1.89163 122 46 34
1.39866 -0.783387 1.89262 92 34 27
1.41863 -0.825734 1.89394 114 46 36
1.43665 -0.863781 1.88835 107 43 34
1.46124 -0.920496 1.89649 64 42 35
1.52006 -0.981233 1.93102 72 42 34
1.35785 -0.602855 1.89142 135 64 46
1.32248 -0.623406 1.87349 93 32 21
1.41662 -0.783766 1.89129 86 29 22
1.48189 -0.923229 1.89409 67 40 33
1.52022 -0.649628 1.97437 116 72 34
1.49828 -0.647788 1.95393 127 66 37
1.43852 -0.626039 1.93358 133 56 42
1.39952 -0.607779 1.91423 130 59 43
1.33605 -0.62419 1.873 108 39 29
1.43968 -0.883731 1.87678 81 40 30
1.44701 -0.901272 1.87269 80 41 36
1.59879 -0.62765 2.41176 100 78 32
1.55654 -0.62753 2.29077 102 78 31
1.60771 -0.629348 2.17619 97 74 26
1.48039 -0.962172 1.88893 77 28 15
1.19397 -0.834418 2.52536 138 137 131
1.20631 -0.744522 2.55406 104 101 89
1.12331 -0.682556 2.43001 128 123 119
1.10628 -0.78013 2.36997 78 75 63
1.12507 -0.748193 2.39125 63 63 48
1.11276 -0.775494 2.3674 79 75 66
1.23816 -0.681355 2.49394 12 12 13
1.20306 -0.663867 2.43753 44 41 33
1.19846 -0.67102 2.39251 138 108 65
1.20354 -0.543095 2.45418 40 40 35
1.21866 -0.684654 2.41295 115 93 59
1.17877 -0.723932 2.37383 145 113 74
1.22803 -0.592532 2.44181 19 17 18
1.23304 -0.640636 2.4379 35 30 31
1.21827 -0.703117 2.41027 152 122 79
1.17774 -0.722824 2.35359 159 123 79
1.33362 -0.667512 2.51904 78 68 51
1.27606 -0.66392 2.47111 67 59 44
1.25964 -0.665639 2.45432 77 66 40
1.23865 -0.685584 2.41326 121 99 61
1.17916 -0.703499 2.35155 165 129 84
1.27727 -0.664029 2.45442 111 92 60
1.15959 -0.704398 2.2934 171 135 89
1.11986 -0.71036 2.25928 202 157 105
1.42342 -0.749511 2.51771 160 125 79
1.11969 -0.72882 2.21625 204 160 103
1.16818 -0.796646 2.19471 146 98 65
1.18281 -0.690521 2.21862 209 153 112
1.53832 -0.744722 2.45062 150 118 72
1.21548 -0.702237 2.172 175 129 76
1.29499 -0.670677 2.23275 165 124 68
1.2435 -0.685066 2.17355 116 80 38
1.24462 -0.724643 2.13695 121 85 49
1.29945 -0.666077 2.19328 145 106 52
1.24287 -0.702769 2.1348 118 80 34
1.59648 -0.737998 2.39162 133 105 63
1.27858 -0.662635 2.15303 126 82 44
1.25577 -0.703607 2.13306 120 77 46
1.25792 -0.724836 2.13174 119 83 48
1.18675 -0.795516 2.05771 70 29 27
1.5998 -0.738003 2.37154 149 117 69
1.24415 -0.744341 2.09078 21 6 3
1.27783 -0.705851 2.11498 118 53 33
1.27799 -0.7252 2.11377 101 46 28
1.2603 -0.745423 2.09311 50 21 14
1.22011 -0.77124 2.05433 82 31 30
1.20244 -0.802359 2.01363 116 50 41
1.24115 -0.860077 2.05006 80 38 28
1.26129 -0.902574 2.05444 64 31 23
1.3541 -0.658803 2.18892 122 84 40
1.29929 -0.664832 2.11272 115 55 31
1.23925 -0.663399 2.07038 125 53 35
1.24047 -0.768642 2.0338 61 18 18
1.20726 -0.820738 1.99819 61 34 29
1.29911 -0.642026 2.09153 121 56 32
1.24102 -0.765973 2.01426 64 21 21
1.26238 -0.878045 2.03507 53 31 24
1.35143 -0.939176 2.05261 27 15 10
1.26247 -0.859743 1.99394 72 33 26
1.67956 -0.73477 2.31195 163 128 82
1.66162 -0.736867 2.29738 126 96 56
1.36062 -0.644014 2.09314 114 59 30
1.26363 -0.8603 1.97773 55 28 22
1.67441 -0.73553 2.29501 172 134 84
1.27847 -0.6622 2.01235 111 40 26
1.29831 -0.801116 2.13143 30 4 3
1.68271 -0.736766 2.2811 168 127 83
1.41895 -0.664012 2.11149 130 74 42
1.25873 -0.823601 1.97194 132 62 50
1.26176 -0.83803 1.95519 90 46 36
1.28061 -0.857533 1.97392 75 38 28
1.69749 -0.735091 2.27498 134 102 63
1.28165 -0.662414 1.99521 111 41 28
1.75682 -0.725034 2.31183 139 110 73
1.30055 -0.700075 2.52797 113 95 62
1.70995 -0.733547 2.26264 153 118 74
1.35615 -0.623971 2.033 135 65 49
1.7393 -0.723172 2.2551 140 109 65
1.33691 -0.622 2.01085 124 49 33
1.32012 -0.80276 1.95211 99 40 32
1.78017 -0.716202 2.27285 136 105 61
1.29915 -0.823334 1.9336 135 62 51
1.31847 -0.822993 1.93136 133 60 49
1.79951 -0.715863 2.25144 143 111 67
1.31855 -0.64337 1.97193 109 39 25
1.32035 -0.842691 1.91495 88 45 38
1.32379 -0.85844 1.91849 80 29 20
1.80266 -0.718479 2.234 154 121 75
1.35695 -0.606466 1.9706 129 59 41
1.32131 -0.684445 1.93509 136 61 47
1.33905 -0.823763 1.91192 132 59 48
1.33876 -0.84264 1.91195 120 57 46
1.34122 -0.860375 1.9149 96 49 40
1.4142 -0.625564 1.98855 137 73 52
1.34128 -0.625028 1.93555 142 65 53
1.35762 -0.842549 1.91243 130 61 48
1.38154 -0.877852 1.91195 121 57 47
1.33837 -0.663706 1.9126 125 54 39
1.34018 -0.684302 1.91287 140 62 49
1.3786 -0.802735 1.91242 87 33 26
1.36159 -0.607714 1.93321 144 73 55
1.37783 -0.822325 1.89078 102 40 31
1.71809 -0.73631 2.11196 167 105 79
1.35983 -0.623273 1.91219 144 61 51
1.33933 -0.702805 1.89265 133 60 46
1.37766 -0.841787 1.89087 103 43 33
1.45241 -0.624372 1.96841 133 64 44
1.38064 -0.607732 1.93452 137 68 48
1.35741 -0.683727 1.89248 138 61 49
1.39739 -0.802167 1.89104 98 37 28
1.39963 -0.865292 1.89138 93 36 25
1.39779 -0.621709 1.93044 120 47 29
1.36025 -0.606847 1.91236 156 89 64
1.35854 -0.663099 1.89173 120 48 35
1.39784 -0.842773 1.87314 107 42 31
1.3993 -0.860985 1.87323 94 41 31
1.38069 -0.624816 1.91327 126 49 35
1.35953 -0.703205 1.87343 102 40 29
1.40158 -0.877662 1.87597 68 32 24
1.42292 -0.898083 1.87713 71 62 59
1.43614 -0.699575 2.07031 147 78 59
1.17961 -0.923166 2.48955 132 130 126
1.22269 -0.661977 2.55091 143 133 122
1.15748 -0.759238 2.44971 90 88 79
1.2402 -0.663021 2.55204 59 49 41
1.17833 -0.882859 2.45558 70 68 57
1.21468 -0.953841 2.44684 59 56 49
1.25809 -0.721859 2.53162 27 25 22
1.26098 -0.72338 2.51396 37 34 28
1.23938 -0.703752 2.49236 21 21 22
1.25816 -0.644791 2.49495 41 38 33
1.25703 -0.581838 2.51024 29 27 25
1.27257 -0.545635 2.51071 58 55 45
1.29823 -0.721529 2.4896 84 66 45
1.3186 -0.715609 2.49062 142 114 69
1.33686 -0.685441 2.4956 95 80 48
1.23947 -0.724182 2.39178 145 115 73
1.17766 -0.763195 2.3137 217 164 114
1.1384 -0.764313 2.2326 176 138 96
1.23909 -1.00272 2.29061 96 43 14
1.16004 -0.743348 2.25307 190 149 98
1.21994 -0.903189 2.2727 101 42 10
1.23806 -0.922828 2.29244 104 45 14
1.21973 -0.921954 2.27154 102 44 11
1.21958 -0.941705 2.26918 104 46 14
1.19712 -0.843353 2.2507 99 41 10
1.18719 -0.867442 2.24601 107 44 15
1.18724 -0.878882 2.24351 106 44 14
1.18582 -0.884144 2.23715 110 45 16
1.18624 -0.90442 2.23826 107 45 14
1.19845 -0.94373 2.23145 101 53 26
1.21971 -0.687766 2.29537 165 130 81
1.17865 -0.743366 2.23276 187 146 96
1.19741 -0.90193 2.23105 98 49 22
1.25864 -0.688899 2.31383 163 131 81
1.15961 -0.764208 2.2132 142 103 68
1.204 -0.821661 2.23675 96 45 21
1.22014 -0.861897 2.25238 92 44 14
1.2155 -0.865434 2.23625 79 52 30
1.21878 -0.742705 2.23208 189 146 101
1.34705 -0.856022 1.88107 140 66 52
1.23943 -0.72268 2.23258 180 137 85
1.21912 -0.779582 2.19512 90 76 53
1.23952 -0.741236 2.21261 179 135 87
1.43916 -0.662826 1.87386 116 45 27
1.24536 -0.823427 2.16822 46 12 11
1.26398 -0.805261 2.17055 46 14 9
1.22025 -0.822089 2.07368 99 44 33
1.20357 -0.769521 2.07708 56 22 22
1.33931 -0.764479 2.17424 102 66 41
1.33612 -0.803863 2.17051 31 8 5
1.21879 -0.822995 2.05272 105 48 38
1.37786 -0.743424 2.19604 106 65 41
1.35457 -0.76313 2.17545 99 56 35
1.3793 -0.765189 2.18039 98 52 34
1.39968 -0.743376 2.19429 115 58 41
1.39377 -0.766984 2.18216 103 63 44
1.43831 -0.735664 2.21302 126 61 43
1.41793 -0.740018 2.19457 125 66 50
1.24 -0.843482 2.03262 92 41 31
1.37613 -0.740071 2.15057 131 58 45
1.35468 -0.760433 2.13296 118 54 42
1.37889 -0.742155 2.13151 134 59 47
1.35649 -0.75992 2.11114 132 60 48
1.4373 -0.736153 2.17006 139 72 55
1.33759 -0.781565 2.0919 53 17 14
1.31957 -0.765735 2.07249 62 23 18
1.41849 -0.721195 2.15315 134 62 47
1.40019 -0.727873 2.13336 134 62 48
1.37902 -0.743918 2.11212 133 60 47
1.35835 -0.764399 2.09286 133 59 47
1.35268 -0.777153 2.08968 111 50 42
1.25974 -0.783369 2.01177 60 17 12
1.25992 -0.822722 1.99352 107 40 32
1.26099 -0.843814 1.99218 105 45 36
1.4387 -0.720352 2.13276 135 60 47
1.37919 -0.744087 2.0922 126 56 42
1.33806 -0.783413 2.0541 62 19 15
1.41551 -0.734164 2.1094 135 59 48
1.3762 -0.76008 2.07094 118 47 39
1.28026 -0.822414 1.99278 123 54 44
1.45895 -0.724466 2.13445 142 72 54
1.43799 -0.722355 2.11385 135 62 49
1.41455 -0.736504 2.09334 120 46 35
1.27865 -0.803232 1.99411 108 42 34
1.29977 -0.862766 1.97456 103 52 40
1.37659 -0.762775 2.05159 99 34 27
1.34071 -0.761676 2.03152 104 39 30
1.30022 -0.842649 1.97352 139 67 53
