ply
format ascii 1.0
comment Created by Open3D
element vertex 1275
property double x
property double y
property double z
property uchar red
property uchar green
property uchar blue
end_header
-0.855356 -0.435684 2.09986 113 116 97
-0.661563 -0.0866089 2.33227 71 76 58
-0.82783 -0.181659 2.05876 90 85 59
-0.860943 -0.223439 2.03882 93 89 72
-0.65853 -0.381808 2.27067 78 77 60
-0.718612 -0.12457 2.29176 79 76 48
-0.845377 -0.282974 2.02978 101 97 78
-0.761221 -0.262554 2.25287 90 85 59
-0.840169 -0.415661 2.17012 91 93 72
-0.740802 -0.183373 2.19264 86 81 52
-0.81858 -0.434698 2.09235 176 175 161
-0.858728 -0.36233 2.07135 95 92 74
-0.606528 -0.0589877 2.37635 48 68 69
-0.759847 -0.383425 2.27207 75 72 53
-0.706471 -0.302034 2.29836 63 57 30
-0.893178 -0.321813 2.08614 97 93 77
-0.521032 -0.144359 2.4729 86 88 75
-0.645269 -0.437111 2.39654 102 102 81
-0.540618 -0.084148 2.45091 124 126 101
-0.875716 -0.363074 2.09132 99 96 79
-0.780992 -0.450491 2.20945 140 140 119
-0.653436 -0.090438 2.36672 73 72 49
-0.809383 -0.261985 2.13811 98 94 69
-0.639046 -0.142763 2.33103 83 79 57
-0.838361 -0.162998 2.13056 97 94 71
-0.664823 -0.146829 2.27639 81 78 48
-0.821164 -0.322135 2.13417 101 97 76
-0.796489 -0.283232 2.21013 95 89 64
-0.67348 -0.205685 2.38829 73 66 34
-0.639181 -0.145764 2.29077 75 72 42
-0.601977 -0.243294 2.45117 67 62 38
-0.823645 -0.0658957 2.1342 85 86 70
-0.733598 -0.388358 2.3499 93 91 74
-0.700764 -0.404353 2.19207 138 138 119
-0.505258 -0.0843324 2.46515 134 137 131
-0.703541 -0.182328 2.21495 85 79 48
-0.724262 -0.324219 2.27372 67 61 37
-0.772474 -0.344635 2.26531 73 68 48
-0.579418 -0.421741 2.44839 123 125 110
-0.679935 -0.243167 2.37157 75 68 41
-0.893979 -0.322205 2.05558 86 84 69
-0.538261 -0.424023 2.46793 122 121 103
-0.859519 -0.243768 2.11059 96 92 71
-0.538107 -0.303244 2.43263 116 118 98
-0.762002 -0.0833856 2.19413 83 81 54
-0.661167 -0.262917 2.3916 70 64 37
-0.662211 -0.384746 2.33472 73 70 51
-0.701816 -0.403714 2.33322 104 104 85
-0.806181 -0.122021 2.05348 95 91 64
-0.661878 -0.423186 2.27408 172 165 142
-0.822943 -0.34254 2.15474 100 96 73
-0.841707 -0.162022 2.03814 93 92 73
-0.541037 -0.263423 2.41386 113 116 98
-0.601056 -0.182676 2.37347 70 65 43
-0.766664 -0.0651381 2.11437 83 85 65
-0.702782 -0.322501 2.31386 66 61 38
-0.663313 -0.343257 2.39568 58 53 31
-0.742754 -0.201507 2.19472 97 92 63
-0.601279 -0.403084 2.49235 94 95 78
-0.799708 -0.183584 2.13197 90 86 62
-0.80172 -0.203123 2.13377 90 85 61
-0.806281 -0.2033 2.11621 89 85 63
-0.624033 -0.403088 2.45545 89 88 70
-0.820585 -0.34332 2.17273 95 90 67
-0.613709 -0.0710686 2.38342 64 65 46
-0.761718 -0.350622 2.19573 75 71 52
-0.664299 -0.41921 2.3771 143 139 118
-0.796778 -0.401834 2.2298 81 80 62
-0.721694 -0.28319 2.31297 85 79 54
-0.820087 -0.182916 2.09237 93 89 66
-0.681213 -0.283864 2.37217 72 66 40
-0.819205 -0.143999 2.15183 94 91 68
-0.823047 -0.303342 2.15377 98 93 70
-0.600116 -0.16279 2.37339 73 69 48
-0.7006 -0.383619 2.19284 108 107 91
-0.750381 -0.363957 2.19867 69 64 44
-0.744093 -0.204187 2.15395 99 95 67
-0.694221 -0.104468 2.32698 78 76 48
-0.822473 -0.163864 2.11276 91 88 67
-0.60161 -0.107431 2.36977 61 65 47
-0.820533 -0.0455958 2.07879 66 74 65
-0.597887 -0.182406 2.47343 57 54 31
-0.803523 -0.303687 2.17419 93 88 65
-0.822148 -0.0876721 2.0777 98 97 75
-0.561427 -0.44368 2.3933 164 155 131
-0.607149 -0.437434 2.43605 111 111 90
-0.841423 -0.281632 2.09254 106 101 76
-0.640119 -0.419116 2.37265 169 163 143
-0.698401 -0.363649 2.37115 65 61 41
-0.586152 -0.384415 2.50608 72 76 60
-0.740509 -0.42257 2.17282 185 177 154
-0.584384 -0.363583 2.49609 81 83 67
-0.703365 -0.0643082 2.2737 71 71 47
-0.717125 -0.148048 2.20553 91 89 59
-0.798252 -0.404133 2.10956 141 140 121
-0.639324 -0.26172 2.33817 57 51 25
-0.692459 -0.245243 2.36542 81 73 44
-0.724492 -0.426313 2.17312 195 186 162
-0.660665 -0.084769 2.309 74 79 59
-0.634953 -0.437655 2.32737 155 152 132
-0.643747 -0.437115 2.40719 93 97 76
-0.578901 -0.264587 2.41317 76 78 66
-0.598098 -0.0451897 2.38979 42 57 54
-0.891589 -0.105476 2.05446 80 80 69
-0.763459 -0.122611 2.21352 83 80 54
-0.862009 -0.304039 2.0932 102 98 77
-0.502397 -0.304095 2.45052 100 100 91
-0.87572 -0.341123 2.03732 89 85 70
-0.858142 -0.303831 2.13138 110 106 83
-0.817434 -0.402508 2.20739 68 65 45
-0.727537 -0.4482 2.28059 129 129 111
-0.803201 -0.103407 2.15457 93 90 66
-0.605545 -0.463003 2.40441 173 164 133
-0.621643 -0.385293 2.39422 76 74 56
-0.69564 -0.123916 2.3715 69 68 41
-0.703339 -0.323329 2.33386 68 63 40
-0.788069 -0.117156 2.08164 104 101 76
-0.616733 -0.144721 2.45088 62 62 40
-0.57958 -0.204045 2.37246 66 64 48
-0.601397 -0.223544 2.39234 72 68 49
-0.817291 -0.107143 2.07309 97 95 72
-0.873513 -0.182056 2.12566 81 80 62
-0.843935 -0.323227 2.07345 105 101 80
-0.85067 -0.229749 2.04026 100 96 78
-0.786383 -0.203216 2.13707 95 92 66
-0.560516 -0.403907 2.45228 125 127 111
-0.618671 -0.438873 2.34947 183 171 144
-0.564079 -0.440747 2.3733 140 135 114
-0.58162 -0.400862 2.49048 124 124 105
-0.861811 -0.183907 2.09311 96 94 73
-0.699145 -0.0831666 2.25261 73 72 49
-0.744056 -0.302164 2.23797 82 76 50
-0.603709 -0.281969 2.33335 69 64 48
-0.621683 -0.142633 2.35356 78 74 54
-0.721579 -0.403263 2.29252 112 111 93
-0.724556 -0.17711 2.16221 92 85 60
-0.802779 -0.203403 2.17438 89 84 60
-0.779272 -0.144193 2.25299 81 79 53
-0.808931 -0.139471 2.06134 88 82 52
-0.618501 -0.240708 2.31307 74 69 48
-0.618704 -0.282393 2.46987 64 56 28
-0.59929 -0.202632 2.35222 64 59 35
-0.580773 -0.243049 2.41493 72 74 61
-0.781627 -0.403265 2.19388 133 132 113
-0.760609 -0.264038 2.23278 90 85 59
-0.686949 -0.30318 2.31827 57 51 26
-0.583706 -0.124018 2.43355 58 60 38
-0.542128 -0.401305 2.45305 121 122 106
-0.779198 -0.323759 2.23221 87 81 57
-0.62274 -0.382961 2.43205 91 89 71
-0.620637 -0.422478 2.45211 83 83 69
-0.578866 -0.457015 2.37173 188 176 150
-0.803102 -0.102475 2.13301 90 88 65
-0.758339 -0.183138 2.27299 81 78 52
-0.859143 -0.262809 2.1114 100 96 75
-0.60228 -0.321162 2.35339 66 61 45
-0.803663 -0.183434 2.17443 91 87 63
-0.581325 -0.222033 2.41718 73 75 60
-0.702904 -0.102164 2.29416 78 77 50
-0.678836 -0.203875 2.37149 71 65 36
-0.502341 -0.343308 2.45107 100 100 88
-0.560862 -0.384336 2.46425 103 105 87
-0.640757 -0.344351 2.4139 60 55 34
-0.705412 -0.44583 2.31533 123 123 102
-0.796161 -0.242868 2.20853 94 88 63
-0.586633 -0.084641 2.45285 73 77 60
-0.703059 -0.142853 2.25842 84 82 53
-0.698584 -0.283845 2.35088 78 72 45
-0.756845 -0.304968 2.27066 85 80 54
-0.585446 -0.396475 2.50553 116 116 101
-0.727239 -0.0800414 2.19517 87 84 58
-0.540039 -0.324491 2.45304 119 121 102
-0.854832 -0.26878 2.1513 103 99 76
-0.71861 -0.128022 2.18977 91 88 56
-0.716993 -0.363788 2.35045 65 60 40
-0.801512 -0.0836287 2.15463 91 89 67
-0.537277 -0.264308 2.46681 116 116 91
-0.801026 -0.383927 2.05304 125 125 110
-0.718301 -0.417372 2.36698 67 62 42
-0.84163 -0.263237 2.11289 103 98 75
-0.537467 -0.125072 2.4835 95 96 75
-0.638395 -0.287359 2.35152 54 48 22
-0.735865 -0.385011 2.33118 68 65 44
-0.678996 -0.164301 2.37064 71 67 38
-0.786484 -0.451017 2.19636 147 148 130
-0.679919 -0.26338 2.37162 76 70 43
-0.838666 -0.22364 2.13304 98 94 70
-0.842622 -0.102997 2.07629 92 91 71
-0.680943 -0.417026 2.3313 152 150 131
-0.597359 -0.0894498 2.43936 65 63 41
-0.726235 -0.414542 2.35886 68 63 43
-0.743986 -0.102824 2.19392 86 83 56
-0.558769 -0.382 2.4276 112 116 98
-0.722142 -0.443838 2.29334 116 117 96
-0.583532 -0.383498 2.49506 91 93 78
-0.660006 -0.305531 2.31119 50 42 18
-0.760733 -0.0842354 2.09313 85 83 60
-0.679617 -0.422014 2.37271 110 111 90
-0.662383 -0.383084 2.35378 75 72 52
-0.705748 -0.384643 2.2989 96 96 78
-0.699579 -0.223239 2.25181 90 83 54
-0.701941 -0.122996 2.29212 79 77 50
-0.635578 -0.124372 2.32793 85 81 63
-0.538843 -0.102918 2.41123 123 128 111
-0.595615 -0.325788 2.50476 64 64 46
-0.718901 -0.0452892 2.19337 59 66 53
-0.64049 -0.381965 2.47233 65 63 42
-0.841661 -0.223524 2.11382 97 93 70
-0.54038 -0.18318 2.41248 114 117 99
-0.701463 -0.404699 2.2933 104 105 87
-0.563023 -0.223038 2.39355 98 102 93
-0.660181 -0.0889149 2.35055 70 73 53
-0.760614 -0.303252 2.25236 89 83 58
-0.557671 -0.457201 2.3902 181 171 149
-0.743775 -0.143821 2.15115 82 80 53
-0.555885 -0.164746 2.42799 102 106 89
-0.843758 -0.323078 2.11412 103 99 76
-0.61439 -0.204812 2.33132 72 65 36
-0.777394 -0.401618 2.25013 88 88 69
-0.72256 -0.183517 2.21242 88 84 54
-0.559342 -0.243141 2.41003 112 117 105
-0.578639 -0.438972 2.40902 178 168 142
-0.603169 -0.303645 2.472 60 54 31
-0.583179 -0.162027 2.47539 79 82 65
-0.839182 -0.36177 2.07255 104 101 84
-0.623573 -0.281642 2.35673 55 49 24
-0.541355 -0.0832247 2.3952 132 135 123
-0.764852 -0.0997112 2.09478 93 91 67
-0.739783 -0.363955 2.31089 66 63 41
-0.874664 -0.222856 2.10888 83 79 61
-0.82922 -0.269862 2.07932 119 115 89
-0.601529 -0.345708 2.50786 51 49 30
-0.639109 -0.40271 2.45038 80 78 61
-0.798552 -0.419407 2.21209 115 118 97
-0.717194 -0.303704 2.33107 76 70 45
-0.75751 -0.263861 2.13207 98 93 66
-0.858572 -0.0998474 2.12893 97 96 75
-0.641562 -0.123575 2.31351 84 80 58
-0.562289 -0.42098 2.39083 128 128 112
-0.539179 -0.283353 2.43229 116 119 98
-0.764053 -0.142581 2.21443 83 81 55
-0.561374 -0.0837711 2.37286 98 107 105
-0.800189 -0.143435 2.21235 89 87 62
-0.707172 -0.321716 2.27869 57 50 23
-0.602035 -0.42361 2.35519 140 137 118
-0.821852 -0.383522 2.03379 120 120 105
-0.760952 -0.42416 2.19207 178 173 154
-0.701735 -0.203911 2.33369 76 71 45
-0.661154 -0.223041 2.37421 72 66 39
-0.742316 -0.404195 2.27431 119 118 101
-0.539258 -0.043009 2.41142 124 129 114
-0.799814 -0.142884 2.23068 84 81 58
-0.761373 -0.243554 2.23333 88 83 57
-0.795934 -0.418698 2.23723 97 93 73
-0.597829 -0.419913 2.38765 158 151 130
-0.698401 -0.104351 2.3102 76 74 47
-0.78249 -0.0831349 2.25735 85 83 56
-0.800224 -0.162416 2.11283 92 89 64
-0.641035 -0.243097 2.41289 67 61 33
-0.762839 -0.362786 2.13323 77 74 53
-0.621928 -0.360108 2.39283 49 43 24
-0.718859 -0.380278 2.22697 64 61 45
-0.684106 -0.362472 2.37482 58 54 32
-0.738634 -0.0839973 2.12579 82 80 51
-0.880272 -0.242442 2.0922 90 87 69
-0.763093 -0.185268 2.19165 86 82 56
-0.761717 -0.421213 2.17232 176 170 150
-0.663744 -0.283657 2.35311 67 63 38
-0.739315 -0.303576 2.29175 84 78 53
-0.539287 -0.201653 2.45336 109 109 89
-0.620538 -0.437318 2.43281 89 93 73
-0.522986 -0.0639728 2.39395 114 117 98
-0.842043 -0.363019 2.05216 92 90 74
-0.835682 -0.30407 2.16888 103 99 75
-0.682614 -0.163605 2.33475 75 72 45
-0.636514 -0.16341 2.42985 64 61 35
-0.600613 -0.123229 2.41217 64 65 44
-0.737039 -0.0823665 2.27198 80 78 51
-0.55924 -0.441507 2.41125 170 161 136
-0.85981 -0.382971 2.11326 93 92 74
-0.722048 -0.403356 2.31333 103 103 85
-0.557709 -0.343181 2.45116 108 111 94
-0.826887 -0.301319 2.09643 111 107 84
-0.66048 -0.0813025 2.27491 71 79 68
-0.654515 -0.2642 2.42778 72 64 36
-0.541269 -0.203348 2.43164 117 119 100
-0.643743 -0.142256 2.37441 71 69 43
-0.783095 -0.405919 2.17444 155 153 134
-0.879129 -0.383602 2.1102 129 129 112
-0.720409 -0.402163 2.27342 102 101 86
-0.663638 -0.123221 2.33491 74 72 45
-0.755883 -0.121667 2.29289 73 70 46
-0.617785 -0.0902849 2.41227 68 65 41
-0.582474 -0.161492 2.37345 65 63 43
-0.818235 -0.123587 2.15144 94 92 69
-0.683549 -0.242399 2.31481 75 71 46
-0.721747 -0.343262 2.31316 64 59 37
-0.800499 -0.223831 2.19219 92 88 62
-0.70034 -0.20479 2.23399 84 76 45
-0.822415 -0.403738 2.11654 141 141 123
-0.864412 -0.0841591 2.15413 79 78 62
-0.578633 -0.383636 2.41424 85 88 74
-0.700441 -0.0628261 2.21349 72 75 56
-0.84386 -0.382626 2.13377 101 99 80
-0.89405 -0.281929 2.05646 82 79 64
-0.838934 -0.303211 2.1505 106 102 77
-0.807579 -0.243813 2.13438 96 91 67
-0.621888 -0.243179 2.43287 65 58 31
-0.660158 -0.0661667 2.33233 67 75 61
-0.759877 -0.0647498 2.21244 81 80 56
-0.780933 -0.382625 2.11319 127 128 112
-0.759494 -0.184078 2.25175 83 79 51
-0.834453 -0.126342 2.14983 101 99 75
-0.83882 -0.28306 2.13205 102 98 75
-0.583101 -0.18277 2.47633 74 77 60
-0.762645 -0.202739 2.1944 84 79 51
-0.596416 -0.303986 2.36916 63 59 42
-0.780776 -0.104928 2.09112 87 85 60
-0.781678 -0.263422 2.19343 90 85 60
-0.846351 -0.300804 2.03378 101 97 79
-0.7237 -0.420982 2.3148 107 108 87
-0.641973 -0.322137 2.35793 54 48 25
-0.883136 -0.163851 2.11205 83 82 64
-0.638387 -0.383683 2.45139 65 62 42
-0.602421 -0.0835841 2.39486 52 65 58
-0.602539 -0.381641 2.47324 71 72 56
-0.821783 -0.203588 2.13323 90 86 64
-0.862439 -0.382014 2.07307 97 98 81
-0.764064 -0.381501 2.23616 88 86 68
-0.761114 -0.417778 2.27063 99 98 79
-0.817506 -0.2237 2.17165 94 89 65
-0.616471 -0.184442 2.44975 60 58 34
-0.651342 -0.391524 2.47076 118 118 101
-0.878924 -0.0823522 2.06823 72 75 68
-0.701823 -0.125311 2.18932 79 76 44
-0.742582 -0.322941 2.27347 76 71 47
-0.801553 -0.22378 2.15282 90 85 61
-0.66322 -0.123112 2.29377 85 82 57
-0.675158 -0.263533 2.38985 74 67 37
-0.583326 -0.204138 2.48627 93 95 78
-0.835316 -0.085526 2.12887 94 91 72
-0.83893 -0.303345 2.13216 104 99 76
-0.798961 -0.0823478 2.07338 88 87 68
-0.661585 -0.164289 2.27548 74 71 42
-0.802663 -0.322938 2.17361 93 89 67
-0.659247 -0.263859 2.33344 68 63 37
-0.743104 -0.263682 2.2538 90 85 59
-0.776619 -0.242748 2.15622 102 97 68
-0.66301 -0.302593 2.39405 64 59 34
-0.753106 -0.184376 2.28494 104 101 80
-0.635759 -0.246322 2.33254 60 54 27
-0.678871 -0.184038 2.37147 70 65 36
-0.616373 -0.165583 2.36613 77 73 53
-0.837054 -0.20133 2.17288 81 77 58
-0.822458 -0.22266 2.11346 95 90 67
-0.614446 -0.420297 2.46814 101 102 83
-0.84031 -0.12329 2.09375 96 94 71
-0.682566 -0.342584 2.35369 62 57 37
-0.540742 -0.344038 2.41313 109 112 93
-0.716591 -0.384834 2.21088 79 78 61
-0.791822 -0.379925 2.24853 66 62 44
-0.800082 -0.263201 2.19294 94 89 64
-0.741008 -0.342524 2.25355 65 60 37
-0.746235 -0.259 2.13539 90 84 56
-0.660795 -0.243521 2.39288 68 62 33
-0.681908 -0.0425761 2.29634 59 67 54
-0.822947 -0.183837 2.13408 91 88 65
-0.51931 -0.322784 2.45039 92 93 78
-0.598026 -0.124315 2.45304 70 72 51
-0.658853 -0.303385 2.41102 63 57 31
-0.745296 -0.0805273 2.17389 84 81 56
-0.78078 -0.0838621 2.07296 86 84 60
-0.601975 -0.401899 2.47286 111 111 94
-0.703063 -0.283398 2.33334 81 75 49
-0.856037 -0.183156 2.10911 98 94 73
-0.720224 -0.084047 2.27222 74 73 47
-0.597555 -0.288214 2.50317 70 67 51
-0.540725 -0.142903 2.45302 123 124 99
-0.79779 -0.303676 2.21086 93 87 62
-0.744836 -0.248189 2.12854 86 80 50
-0.783727 -0.342821 2.21498 79 74 52
-0.647233 -0.200431 2.33923 64 60 36
-0.810098 -0.118232 2.03224 86 82 51
-0.621513 -0.1439 2.33034 82 78 55
-0.639429 -0.418915 2.43193 102 103 83
-0.680114 -0.0851388 2.27142 66 69 47
-0.82094 -0.120808 2.03862 96 94 74
-0.817388 -0.383408 2.20901 75 71 51
-0.659874 -0.102744 2.4133 59 60 41
-0.704395 -0.183261 2.2937 84 80 54
-0.762004 -0.0835023 2.21387 82 80 54
-0.60305 -0.163862 2.43374 63 61 36
-0.600346 -0.125696 2.35567 72 70 52
-0.80154 -0.163502 2.15113 89 85 62
-0.576621 -0.455622 2.38731 186 175 152
-0.582407 -0.122458 2.41385 67 72 56
-0.733464 -0.222384 2.30681 97 91 63
-0.759589 -0.224418 2.25145 89 84 57
-0.872412 -0.354492 2.1404 104 100 82
-0.681897 -0.0837096 2.29731 74 77 54
-0.560922 -0.103753 2.47395 115 117 98
-0.84363 -0.343484 2.11417 103 99 77
-0.599777 -0.163855 2.45181 68 67 45
-0.722267 -0.263346 2.25131 86 78 50
-0.843534 -0.0651526 2.09479 89 90 75
-0.847572 -0.258514 2.06075 97 92 70
-0.861887 -0.323801 2.07392 102 98 78
-0.841033 -0.375969 2.067 84 80 63
-0.84209 -0.222567 2.07431 92 88 67
-0.840517 -0.241062 2.07463 97 93 70
-0.842388 -0.263209 2.09459 103 98 74
-0.841628 -0.302481 2.0937 106 101 77
-0.863403 -0.343287 2.09536 104 100 79
-0.8633 -0.363905 2.09483 91 87 68
-0.86328 -0.382569 2.09537 99 100 82
-0.822822 -0.142066 2.05343 92 90 68
-0.843673 -0.243187 2.0946 98 94 71
-0.859464 -0.363062 2.11255 96 92 73
-0.820889 -0.163087 2.07372 92 89 66
-0.842369 -0.203278 2.09284 96 92 70
-0.841643 -0.223333 2.09504 96 91 69
-0.844254 -0.303192 2.11453 105 101 78
-0.858653 -0.400883 2.11168 123 124 106
-0.800922 -0.102378 2.05394 93 91 67
-0.823209 -0.223086 2.0942 95 91 69
-0.84126 -0.243998 2.11327 101 97 73
-0.842198 -0.342497 2.13255 101 96 74
-0.800879 -0.0841796 2.05322 83 82 64
-0.801842 -0.123963 2.07412 91 89 65
-0.810392 -0.155673 2.07714 90 84 52
-0.806298 -0.160996 2.09463 89 86 62
-0.820473 -0.204286 2.11221 92 88 64
-0.822251 -0.282221 2.13427 101 96 71
-0.83734 -0.344671 2.15106 98 94 71
-0.839404 -0.363442 2.15061 98 94 74
-0.784853 -0.101279 2.07414 95 93 68
-0.800059 -0.124106 2.0927 92 90 66
-0.802622 -0.143894 2.09292 92 89 67
-0.821275 -0.223686 2.13214 95 91 67
-0.834278 -0.363407 2.16714 99 95 75
-0.818662 -0.323736 2.17204 97 92 68
-0.780554 -0.0855296 2.09179 85 84 61
-0.798548 -0.164974 2.13078 92 88 63
-0.821996 -0.222955 2.15251 94 90 65
-0.836534 -0.38443 2.19149 80 75 56
-0.782072 -0.103357 2.11187 89 87 62
-0.783471 -0.141614 2.11453 87 85 63
-0.782082 -0.143158 2.13273 92 88 63
-0.800819 -0.20327 2.15212 89 84 59
-0.818957 -0.263417 2.17138 98 94 69
-0.81709 -0.343643 2.1909 93 88 66
-0.816986 -0.364075 2.19149 87 83 62
-0.819078 -0.401802 2.1913 88 88 70
-0.802506 -0.243945 2.17406 93 88 63
-0.801401 -0.263567 2.17337 93 88 63
-0.759525 -0.103235 2.11006 88 86 61
-0.778394 -0.104471 2.1311 91 88 64
-0.78055 -0.163252 2.15359 90 86 60
-0.800095 -0.30345 2.19264 91 86 61
-0.762853 -0.103582 2.13361 85 82 51
-0.759727 -0.123911 2.13191 91 88 63
-0.778325 -0.143947 2.15056 90 87 61
-0.778042 -0.165273 2.17161 87 83 58
-0.778673 -0.184515 2.17324 86 82 56
-0.780847 -0.243493 2.19361 90 84 59
-0.800625 -0.243498 2.19223 93 88 63
-0.798626 -0.343326 2.21073 84 79 56
-0.764304 -0.104454 2.15122 89 85 59
-0.739185 -0.105384 2.14758 80 75 44
-0.764269 -0.144326 2.17204 88 85 57
-0.781904 -0.203834 2.19356 85 81 56
-0.781213 -0.323573 2.21388 87 82 58
-0.761406 -0.221487 2.1929 90 85 57
-0.779413 -0.342752 2.23222 74 69 45
-0.741197 -0.144465 2.17024 83 79 50
-0.762619 -0.24284 2.21337 89 84 57
-0.762889 -0.303388 2.23342 87 81 57
-0.763 -0.322485 2.23464 80 75 51
-0.718294 -0.124417 2.17179 82 79 49
-0.76405 -0.343007 2.23524 70 65 43
-0.76687 -0.361161 2.23744 66 62 41
-0.714934 -0.104673 2.17089 88 85 53
-0.744296 -0.241575 2.21528 96 89 60
-0.762183 -0.363035 2.25409 65 61 40
-0.718562 -0.143975 2.19084 83 80 50
-0.738309 -0.187 2.21038 90 86 58
-0.741984 -0.243968 2.23368 94 88 60
-0.71946 -0.165849 2.21195 86 82 54
-0.725067 -0.216984 2.21683 91 85 53
-0.721506 -0.223109 2.23155 90 84 53
-0.722791 -0.241 2.23635 90 83 53
-0.700965 -0.163689 2.21376 82 77 47
-0.725636 -0.261967 2.24029 84 77 46
-0.745361 -0.282925 2.25462 87 82 57
-0.742977 -0.363962 2.27449 64 60 40
-0.723988 -0.200708 2.23432 95 89 61
-0.722603 -0.283479 2.2519 82 75 46
-0.724741 -0.243869 2.25042 88 81 52
-0.700358 -0.182534 2.23106 84 79 49
-0.679462 -0.164803 2.23112 80 74 43
-0.702357 -0.262516 2.25572 81 73 44
-0.706795 -0.284365 2.26433 68 60 30
-0.722184 -0.363485 2.29339 64 60 41
-0.682013 -0.181611 2.23471 81 74 43
-0.686715 -0.198158 2.23894 80 72 41
-0.708794 -0.311361 2.2756 57 49 22
-0.72394 -0.343538 2.29447 66 61 40
-0.678375 -0.202712 2.25251 77 70 38
-0.682513 -0.221451 2.25262 87 80 50
-0.687968 -0.23913 2.25364 83 76 45
-0.702615 -0.263658 2.26967 73 65 36
-0.703035 -0.324279 2.29388 58 53 28
-0.701748 -0.342889 2.29245 59 54 31
-0.70389 -0.361748 2.29664 57 52 30
-0.702943 -0.363756 2.31494 60 55 35
-0.688978 -0.328654 2.29805 48 41 16
-0.685732 -0.345561 2.29857 56 51 29
-0.660415 -0.14494 2.25072 71 67 38
-0.684257 -0.362227 2.31465 57 53 32
-0.661121 -0.264429 2.28853 65 57 27
-0.673152 -0.301918 2.29768 51 43 16
-0.680557 -0.363111 2.33442 55 51 31
-0.662374 -0.344141 2.31446 60 56 32
-0.661721 -0.363252 2.3336 58 54 33
-0.719354 -0.323081 2.33099 69 64 40
-0.654429 -0.289583 2.30634 51 43 16
-0.560828 -0.380691 2.41011 101 106 94
-0.641026 -0.267632 2.30592 61 54 26
-0.647017 -0.285504 2.31194 49 41 15
-0.650576 -0.296301 2.31389 47 38 14
-0.662149 -0.324327 2.33368 54 48 23
-0.680797 -0.362854 2.35347 61 57 38
-0.839027 -0.204357 2.15109 91 87 66
-0.843396 -0.304385 2.07302 108 104 82
-0.858643 -0.416346 2.12851 109 110 93
-0.826156 -0.243683 2.09206 98 94 70
-0.856645 -0.364692 2.13032 105 102 84
-0.826609 -0.263151 2.09466 106 102 79
-0.823918 -0.28377 2.11407 104 100 77
-0.852382 -0.415721 2.15623 92 91 70
-0.821252 -0.302511 2.13415 103 99 75
-0.821911 -0.383876 2.17288 101 100 81
-0.784998 -0.243479 2.17433 94 89 64
-0.802539 -0.362842 2.19413 82 78 58
-0.761282 -0.22265 2.15301 105 99 70
-0.781091 -0.262638 2.21195 91 86 61
-0.780276 -0.303772 2.23209 90 84 59
-0.76141 -0.451106 2.23579 146 145 125
-0.744223 -0.203231 2.17513 104 99 71
-0.777781 -0.362963 2.25013 69 65 44
-0.761474 -0.323632 2.25307 80 74 50
-0.762491 -0.402478 2.25384 113 113 95
-0.759979 -0.363373 2.27201 66 62 41
-0.746976 -0.446784 2.25608 123 124 104
-0.75578 -0.419896 2.28842 88 86 66
-0.741268 -0.402827 2.29197 100 100 82
-0.737862 -0.435889 2.28794 107 109 84
-0.706547 -0.204389 2.22066 93 87 57
-0.723236 -0.222785 2.25313 94 88 61
-0.72448 -0.28247 2.27626 82 76 49
-0.741223 -0.383577 2.2936 76 74 55
-0.739943 -0.343183 2.29291 65 60 37
-0.72182 -0.322894 2.29427 71 66 43
-0.733293 -0.420593 2.30567 104 105 84
-0.682902 -0.180002 2.21985 76 68 37
-0.72188 -0.283653 2.29382 84 79 53
-0.722416 -0.303084 2.29444 80 75 50
-0.706232 -0.26196 2.2972 84 79 53
-0.704289 -0.282551 2.29649 72 66 38
-0.72179 -0.363396 2.31361 63 59 38
-0.710297 -0.451745 2.29905 149 145 124
-0.679926 -0.203675 2.26783 85 78 49
-0.701793 -0.304085 2.31285 71 66 42
-0.702282 -0.362981 2.33392 62 58 38
-0.702842 -0.343751 2.33455 62 58 36
-0.699282 -0.421205 2.35023 102 103 83
-0.679934 -0.32293 2.3325 58 53 30
-0.700483 -0.402067 2.35203 92 92 74
-0.682844 -0.302813 2.33291 67 62 39
-0.684389 -0.42219 2.35518 116 116 98
-0.661463 -0.26196 2.31839 59 51 20
-0.662877 -0.283649 2.33196 59 53 26
-0.663016 -0.300769 2.3367 55 49 23
-0.638982 -0.187474 2.28918 65 57 25
-0.661442 -0.24164 2.31781 72 65 43
-0.661412 -0.343962 2.35349 55 49 27
-0.662661 -0.363199 2.35427 58 54 33
-0.662701 -0.324754 2.35189 58 53 30
-0.661251 -0.384697 2.373 69 67 49
-0.661713 -0.403686 2.37304 94 93 75
-0.619135 -0.201656 2.31264 64 57 29
-0.642604 -0.280164 2.34137 51 43 16
-0.660662 -0.420395 2.394 113 113 93
-0.617624 -0.184321 2.31158 64 59 31
-0.641479 -0.382771 2.37208 74 72 53
-0.661108 -0.403314 2.39409 105 104 85
-0.649101 -0.444724 2.37696 134 132 108
-0.777129 -0.104514 2.20982 90 87 62
-0.640534 -0.383866 2.39348 65 62 44
-0.63962 -0.403047 2.39249 81 79 61
-0.628756 -0.297747 2.35851 59 53 29
-0.626755 -0.321351 2.37609 52 47 24
-0.641025 -0.362747 2.39344 61 56 38
-0.599239 -0.223765 2.33369 64 59 38
-0.626862 -0.342516 2.37963 53 48 27
-0.600752 -0.243892 2.35183 58 50 27
-0.625278 -0.435862 2.41348 103 104 82
-0.599344 -0.262928 2.36918 44 35 12
-0.622164 -0.364746 2.41426 61 56 37
-0.584303 -0.20315 2.3546 63 57 35
-0.59408 -0.249349 2.36583 44 35 12
-0.602285 -0.322539 2.39554 48 42 21
-0.621161 -0.40421 2.43489 103 101 81
-0.61902 -0.422585 2.43285 111 112 94
-0.614302 -0.120824 2.46346 70 66 40
-0.585875 -0.223155 2.35447 65 59 39
-0.578958 -0.242439 2.37269 65 61 45
-0.60241 -0.34388 2.41211 51 46 28
-0.604057 -0.362911 2.4148 38 31 14
-0.602044 -0.383983 2.41414 68 67 49
-0.579953 -0.223466 2.37047 62 58 40
-0.600502 -0.38418 2.42759 68 67 51
-0.600651 -0.367185 2.43018 57 55 39
-0.60225 -0.403877 2.45564 87 86 71
-0.607299 -0.436985 2.44657 87 90 71
-0.687675 -0.114958 2.25888 91 87 62
-0.615358 -0.182642 2.47362 66 59 32
-0.760188 -0.378885 2.11185 90 90 73
-0.742782 -0.382231 2.13132 96 96 79
-0.741651 -0.369401 2.15316 72 69 52
-0.738693 -0.366326 2.17117 76 73 54
-0.739163 -0.383362 2.17423 84 83 66
-0.740462 -0.284912 2.16999 90 85 59
-0.720001 -0.384685 2.17465 113 113 96
-0.716225 -0.350989 2.19797 48 44 19
-0.713671 -0.366675 2.20486 57 54 34
-0.540147 -0.0242845 2.43366 118 122 104
-0.843281 -0.222738 2.0525 95 91 71
-0.863151 -0.26313 2.07303 97 93 73
-0.864619 -0.283206 2.07429 102 98 77
-0.836937 -0.144227 2.05045 90 89 68
-0.838917 -0.162781 2.05272 90 89 69
-0.841847 -0.183016 2.07311 92 90 69
-0.860097 -0.283488 2.09334 100 96 74
-0.857781 -0.303867 2.1105 105 101 79
-0.841066 -0.144144 2.09272 96 94 72
-0.842455 -0.182514 2.09432 94 90 69
-0.701639 -0.417068 2.31201 145 145 128
-0.840762 -0.103946 2.09351 96 95 73
-0.841399 -0.12322 2.11371 97 95 72
-0.83881 -0.203854 2.13177 97 93 69
-0.838524 -0.243164 2.1336 102 98 74
-0.820274 -0.163771 2.1528 94 91 68
-0.821964 -0.183496 2.15283 94 91 67
-0.803706 -0.143662 2.15339 91 88 65
-0.803354 -0.163361 2.17334 92 88 65
-0.799515 -0.103875 2.17199 93 90 67
-0.800619 -0.123771 2.17277 93 90 66
-0.799362 -0.184088 2.19132 92 88 63
-0.798364 -0.144089 2.19033 95 91 67
-0.798746 -0.164533 2.19051 93 90 65
-0.780831 -0.103787 2.19393 89 87 61
-0.78335 -0.122948 2.19373 89 86 61
-0.784294 -0.14319 2.19437 88 85 60
-0.797924 -0.204096 2.21119 87 82 58
-0.781442 -0.203965 2.21313 88 83 58
-0.780849 -0.0843294 2.19241 88 85 61
-0.777291 -0.243505 2.23068 92 87 61
-0.778825 -0.26293 2.231 93 88 61
-0.7794 -0.283231 2.23184 91 85 59
-0.781052 -0.184683 2.23288 85 81 54
-0.780515 -0.164662 2.23246 86 83 56
-0.776066 -0.32391 2.24838 84 79 55
-0.776605 -0.343862 2.25054 73 68 46
-0.765717 -0.417884 2.25356 117 119 99
-0.741767 -0.0831584 2.19291 82 79 52
-0.76142 -0.163562 2.23287 83 80 53
-0.759582 -0.204048 2.25213 84 79 52
-0.760813 -0.28321 2.25207 90 84 58
-0.737678 -0.0838372 2.21181 74 72 47
-0.757578 -0.103451 2.23045 85 82 54
-0.743578 -0.102328 2.23626 81 79 52
-0.756262 -0.283604 2.2694 89 83 56
-0.757909 -0.323595 2.27117 78 72 47
-0.759266 -0.343624 2.27154 68 63 40
-0.743281 -0.123311 2.25312 83 80 53
-0.755672 -0.224481 2.27003 88 83 56
-0.755349 -0.26262 2.26847 92 86 59
-0.744625 -0.419377 2.27411 126 127 107
-0.740156 -0.183621 2.27233 81 77 50
-0.740929 -0.243795 2.27337 92 87 61
-0.723139 -0.0832502 2.2549 79 78 51
-0.737844 -0.223865 2.29152 93 87 62
-0.737562 -0.243614 2.29227 92 87 61
-0.738171 -0.263175 2.29186 91 85 59
-0.739531 -0.163088 2.29108 80 77 50
-0.739356 -0.383947 2.31007 81 79 60
-0.723503 -0.123468 2.27474 80 78 51
-0.732597 -0.264294 2.30603 90 84 60
-0.733458 -0.28452 2.30692 86 80 55
-0.734709 -0.304139 2.30951 80 75 50
-0.719983 -0.224258 2.31195 88 83 57
-0.7216 -0.322876 2.31311 71 66 42
-0.703281 -0.0829482 2.2747 76 77 55
-0.718062 -0.163778 2.3103 79 75 48
-0.72003 -0.342936 2.3318 63 58 35
-0.721308 -0.362985 2.33257 65 61 40
-0.714616 -0.202975 2.32874 83 78 49
-0.716046 -0.284461 2.32925 82 75 49
-0.703098 -0.162672 2.31396 77 73 46
-0.663483 -0.0819298 2.25343 76 79 61
-0.680423 -0.103512 2.29317 77 75 48
-0.696277 -0.144093 2.32852 77 74 45
-0.699558 -0.303658 2.35194 71 65 39
-0.701121 -0.343623 2.35395 60 55 32
-0.694661 -0.123955 2.32787 77 75 46
-0.697972 -0.184289 2.34933 73 68 38
-0.697605 -0.263961 2.35012 81 75 49
-0.698959 -0.165368 2.35008 71 68 40
-0.697159 -0.343356 2.37046 62 57 35
-0.699007 -0.383005 2.37214 76 73 54
-0.699797 -0.413844 2.37356 78 77 57
-0.676325 -0.124839 2.34952 75 73 44
-0.68266 -0.203283 2.35361 73 68 41
-0.683943 -0.343027 2.37374 57 52 29
-0.639577 -0.184269 2.41166 67 62 34
-0.683809 -0.381228 2.37462 72 70 50
-0.678498 -0.400967 2.39273 88 87 69
-0.676388 -0.285243 2.39011 70 64 36
-0.680325 -0.363275 2.39183 62 58 36
-0.658374 -0.124209 2.37099 74 72 44
-0.659457 -0.143718 2.37186 73 71 42
-0.673752 -0.224398 2.38759 72 65 33
-0.663904 -0.322987 2.39449 60 55 31
-0.663326 -0.362939 2.39522 59 55 34
-0.639647 -0.103586 2.31063 78 78 57
-0.657393 -0.105302 2.36907 73 73 49
-0.659012 -0.1646 2.39015 69 65 36
-0.659183 -0.184563 2.39191 68 63 35
-0.662206 -0.362972 2.41406 58 54 33
-0.661223 -0.382126 2.41378 65 62 42
-0.66054 -0.401955 2.41269 91 91 72
-0.64252 -0.104709 2.37321 68 70 49
-0.658207 -0.263226 2.41024 68 61 31
-0.658585 -0.282933 2.41093 66 59 31
-0.66 -0.323367 2.4121 59 54 30
-0.660446 -0.343501 2.41444 57 51 29
-0.657335 -0.204824 2.41 70 63 33
-0.656513 -0.22527 2.40957 70 62 32
-0.640961 -0.162716 2.39254 72 69 42
-0.638573 -0.164552 2.41135 66 63 35
-0.641057 -0.223343 2.41189 66 59 32
-0.642112 -0.282736 2.41319 66 59 34
-0.64328 -0.302663 2.41453 63 58 35
-0.641814 -0.323453 2.43271 57 51 28
-0.643192 -0.362824 2.43509 58 53 33
-0.642746 -0.402134 2.43355 91 91 72
-0.639199 -0.127323 2.41318 68 66 38
-0.63862 -0.145122 2.41049 67 64 36
-0.638849 -0.262847 2.43185 66 58 28
-0.639587 -0.283368 2.43215 63 55 27
-0.619016 -0.143408 2.43158 64 63 37
-0.620597 -0.184032 2.43168 63 58 33
-0.622005 -0.204083 2.43245 64 58 32
-0.637267 -0.303436 2.44953 58 50 24
-0.622651 -0.382869 2.45551 66 63 44
-0.619255 -0.244549 2.45162 63 55 26
-0.619974 -0.263702 2.45118 64 56 28
-0.619087 -0.343263 2.47081 53 47 25
-0.620075 -0.382893 2.47198 63 60 42
-0.618137 -0.125146 2.45166 63 63 43
-0.616367 -0.164169 2.45057 63 62 39
-0.600584 -0.184938 2.45243 66 63 39
-0.599654 -0.204846 2.47232 59 54 30
-0.601359 -0.263151 2.47208 61 55 28
-0.602773 -0.341695 2.47385 57 54 36
-0.602079 -0.384256 2.4919 68 68 51
-0.59972 -0.417247 2.48619 99 100 82
-0.580386 -0.104715 2.41006 66 75 63
-0.600431 -0.362929 2.49211 59 58 40
-0.602 -0.246247 2.49059 63 58 34
-0.578583 -0.121382 2.46832 89 94 78
-0.583881 -0.141976 2.47001 76 78 62
-0.584542 -0.263352 2.49239 83 86 68
-0.585437 -0.285218 2.49211 81 83 64
-0.586038 -0.303144 2.4933 73 74 55
-0.585346 -0.363285 2.50396 68 72 56
-0.54097 -0.204062 2.41146 116 119 102
-0.539454 -0.243093 2.43352 112 114 95
-0.539386 -0.263505 2.43252 112 114 95
-0.556248 -0.322265 2.44903 110 113 95
-0.557737 -0.363882 2.4512 112 115 98
-0.540341 -0.344682 2.44988 111 113 94
-0.54144 -0.382862 2.44992 102 104 85
-0.536919 -0.407297 2.4675 120 119 101
-0.521629 -0.322346 2.43376 101 103 86
-0.539234 -0.342075 2.43126 114 117 100
-0.712725 -0.142846 2.34611 74 72 45
-0.520454 -0.363545 2.45146 82 84 67
-0.520373 -0.382857 2.45212 92 94 77
-0.501855 -0.282517 2.43494 86 88 78
-0.502834 -0.323101 2.45035 91 91 81
-0.502991 -0.363177 2.4505 89 89 79
-0.501189 -0.263199 2.4506 93 93 84
-0.76283 -0.424175 2.13368 189 179 156
-0.841749 -0.404109 2.05489 128 128 112
-0.842358 -0.406333 2.07344 152 150 131
-0.58875 -0.277667 2.33581 57 54 30
-0.818096 -0.103424 2.01822 97 96 75
-0.839 -0.123028 2.03544 92 92 73
-0.823153 -0.103113 2.0374 88 88 69
-0.858662 -0.282624 2.11114 102 99 77
-0.842143 -0.401992 2.09396 140 139 121
-0.821684 -0.40274 2.07444 128 128 112
-0.841913 -0.403907 2.11394 141 141 122
-0.819314 -0.125357 2.07211 94 92 69
-0.859335 -0.325074 2.13216 109 105 83
-0.858825 -0.344165 2.13124 105 100 80
-0.821744 -0.124516 2.09271 92 90 68
-0.821104 -0.144339 2.09186 97 95 71
-0.803819 -0.402947 2.09419 132 132 116
-0.838187 -0.283275 2.15078 105 101 77
-0.821575 -0.401997 2.15282 133 134 114
-0.796804 -0.12481 2.10985 94 92 67
-0.824824 -0.382528 2.15436 106 105 87
-0.801873 -0.404871 2.15358 152 151 132
-0.802881 -0.143113 2.13116 88 86 63
-0.781418 -0.40328 2.13133 135 134 116
-0.813779 -0.262556 2.18681 97 93 69
-0.814538 -0.282898 2.18763 101 96 70
-0.761494 -0.40314 2.15454 128 128 111
-0.782209 -0.40329 2.21351 114 114 95
-0.762303 -0.404452 2.21444 140 140 120
-0.739015 -0.40232 2.17158 133 132 113
-0.736277 -0.161699 2.15317 92 89 59
-0.74185 -0.182697 2.1729 97 92 63
-0.761791 -0.405494 2.23375 124 124 105
-0.762046 -0.223336 2.23361 87 82 56
-0.775354 -0.304745 2.2479 92 87 62
-0.720741 -0.401904 2.17373 128 127 110
-0.724097 -0.176252 2.17167 86 83 53
-0.741931 -0.405347 2.23293 138 137 117
-0.740013 -0.404131 2.21162 139 139 122
-0.721555 -0.16227 2.17414 87 84 54
-0.743344 -0.221849 2.2343 94 89 62
-0.72296 -0.405948 2.21504 140 137 118
-0.740677 -0.405016 2.25261 132 131 113
-0.719936 -0.404745 2.23116 142 142 124
-0.700954 -0.402214 2.21086 101 102 87
-0.720765 -0.405036 2.25372 112 112 94
-0.721953 -0.202894 2.25505 91 86 58
-0.701431 -0.404757 2.2335 126 125 107
-0.721151 -0.223458 2.29281 92 86 61
-0.681236 -0.405227 2.23287 108 111 94
-0.721759 -0.243767 2.2931 90 85 59
-0.721791 -0.204227 2.29227 85 80 55
-0.681398 -0.405667 2.27167 134 132 114
-0.700797 -0.222789 2.31313 83 78 53
-0.678517 -0.403637 2.29093 128 127 110
-0.662574 -0.403768 2.27123 114 115 97
-0.700423 -0.203959 2.31307 78 74 48
-0.681219 -0.401569 2.31291 111 111 92
-0.681534 -0.405133 2.33205 94 94 77
-0.662485 -0.40635 2.2919 127 126 109
-0.681851 -0.222836 2.33329 77 71 45
-0.661595 -0.405174 2.31292 124 123 106
-0.682926 -0.223773 2.35326 74 68 42
-0.682514 -0.243918 2.35372 77 71 46
-0.660128 -0.403067 2.33332 106 106 88
-0.638552 -0.402708 2.29375 121 120 103
-0.643777 -0.421668 2.27283 157 153 132
-0.642004 -0.406949 2.31367 141 138 120
-0.640113 -0.422307 2.29269 157 152 130
-0.659841 -0.204759 2.35247 74 68 42
-0.642558 -0.408281 2.33276 132 131 113
-0.661474 -0.20381 2.37439 72 67 40
-0.622066 -0.421876 2.31283 151 147 126
-0.643367 -0.200843 2.35507 74 68 44
-0.640369 -0.403683 2.35307 101 100 85
-0.621062 -0.405882 2.33288 130 129 112
-0.621623 -0.405515 2.35339 133 131 113
-0.622248 -0.40345 2.31333 123 123 106
-0.618438 -0.16377 2.31358 70 66 37
-0.639951 -0.204025 2.37204 71 65 38
-0.616963 -0.184519 2.33257 71 65 37
-0.655087 -0.302475 2.4291 64 58 31
-0.62062 -0.404598 2.37336 104 105 89
-0.601292 -0.405235 2.35272 131 130 112
-0.603772 -0.16414 2.3341 67 63 37
-0.637865 -0.342965 2.45046 54 47 24
-0.637976 -0.363229 2.45091 58 53 32
-0.600994 -0.404387 2.39304 112 112 96
-0.60163 -0.405239 2.37289 122 121 107
-0.62088 -0.203592 2.41355 67 62 36
-0.581372 -0.40671 2.37362 108 109 93
-0.581843 -0.18491 2.36988 64 61 42
-0.581534 -0.404458 2.41083 119 119 103
-0.618291 -0.343912 2.49221 52 46 24
-0.61897 -0.383231 2.49004 59 56 37
-0.618961 -0.4005 2.49118 83 83 65
-0.582001 -0.404172 2.39293 109 111 97
-0.580337 -0.202032 2.41587 72 72 54
-0.560052 -0.404232 2.39221 120 124 107
-0.558124 -0.163835 2.39258 102 107 96
-0.582006 -0.20409 2.43296 69 67 44
-0.600013 -0.385313 2.51096 74 76 59
-0.560223 -0.184082 2.41124 98 102 86
-0.580061 -0.184047 2.42942 70 70 49
-0.580246 -0.222817 2.45109 64 63 42
-0.601213 -0.397627 2.50768 88 90 74
-0.558735 -0.183867 2.42865 96 99 82
-0.562091 -0.20214 2.45593 112 116 97
-0.581954 -0.26175 2.4737 72 72 52
-0.589079 -0.339778 2.50395 71 75 57
-0.561661 -0.204384 2.433 88 91 74
-0.560759 -0.222866 2.45246 108 111 93
-0.555296 -0.241125 2.43535 112 115 97
-0.557606 -0.263708 2.43249 115 118 101
-0.561812 -0.26251 2.44761 107 110 92
-0.558403 -0.283651 2.43129 119 123 107
-0.543029 -0.303761 2.41409 114 116 98
-0.542892 -0.32288 2.41392 113 116 98
-0.539148 -0.382845 2.41163 109 112 95
-0.521198 -0.324483 2.39576 101 104 84
-0.522038 -0.344957 2.396 101 104 85
-0.50205 -0.324522 2.41257 71 72 60
-0.782439 -0.104281 2.256 85 82 56
-0.761518 -0.161046 2.15425 86 83 59
-0.885525 -0.123183 2.11193 83 81 66
-0.860562 -0.422067 2.07227 176 172 153
-0.857882 -0.420514 2.05257 177 172 155
-0.846484 -0.197319 2.04086 89 88 69
-0.86127 -0.243578 2.05334 93 89 71
-0.860748 -0.264028 2.05349 96 92 73
-0.877207 -0.343391 2.09028 102 98 80
-0.877163 -0.383732 2.09197 103 103 87
-0.878323 -0.402393 2.0914 143 142 125
-0.839726 -0.142859 2.03618 93 92 73
-0.841494 -0.182991 2.05355 91 89 70
-0.874306 -0.399503 2.10645 106 103 86
-0.83959 -0.422401 2.07246 177 171 151
-0.841948 -0.422032 2.09356 180 176 156
-0.82071 -0.433802 2.07288 181 175 155
-0.840467 -0.421605 2.11069 175 174 157
-0.800609 -0.440202 2.07071 183 173 148
-0.819171 -0.422239 2.09053 184 178 157
-0.821793 -0.421955 2.11341 185 180 160
-0.819745 -0.421432 2.1313 177 175 157
-0.807615 -0.434951 2.10708 178 177 163
-0.793229 -0.438956 2.08568 204 195 171
-0.8181 -0.417563 2.15071 152 153 136
-0.801441 -0.422387 2.13318 175 171 150
-0.799778 -0.423809 2.15331 180 177 158
-0.799574 -0.417561 2.17202 163 163 146
-0.782589 -0.421155 2.15256 173 169 148
-0.762873 -0.141022 2.13503 83 82 60
-0.780653 -0.418872 2.19086 164 165 148
-0.739637 -0.103403 2.13154 88 86 61
-0.738683 -0.423924 2.21119 180 176 156
-0.721858 -0.434797 2.21041 175 172 154
-0.719441 -0.42304 2.22979 180 174 153
-0.758507 -0.40243 2.29126 81 79 61
-0.720551 -0.420699 2.25267 144 143 125
-0.716658 -0.435642 2.22349 190 185 170
-0.722345 -0.184407 2.23237 89 85 58
-0.720167 -0.421244 2.27175 175 171 152
-0.721004 -0.416547 2.29058 143 144 126
-0.69698 -0.43617 2.25022 194 189 173
-0.700585 -0.184377 2.25254 85 80 51
-0.699767 -0.420883 2.29266 150 147 129
-0.681809 -0.421511 2.29296 130 130 114
-0.680636 -0.184097 2.27321 81 75 46
-0.659039 -0.438618 2.27167 169 160 136
-0.660425 -0.439964 2.29317 141 142 126
-0.683344 -0.282835 2.3542 76 70 44
-0.652184 -0.440473 2.30611 158 155 136
-0.639137 -0.44289 2.312 147 146 127
-0.641912 -0.203438 2.39351 70 65 39
-0.600411 -0.440122 2.35055 158 152 129
-0.622289 -0.282893 2.4339 64 57 31
-0.623563 -0.302491 2.43326 64 58 35
-0.579316 -0.44126 2.37159 159 152 129
-0.600956 -0.423603 2.43442 134 133 115
-0.57688 -0.4247 2.41009 162 156 134
-0.57777 -0.441097 2.39109 173 163 138
-0.602399 -0.263288 2.45294 67 62 38
-0.601014 -0.416105 2.47157 106 107 87
-0.580447 -0.421974 2.43513 168 163 142
-0.56085 -0.424328 2.43255 163 157 134
-0.581687 -0.282067 2.47299 75 74 56
-0.582335 -0.299676 2.47227 77 76 59
-0.578629 -0.416006 2.47132 105 106 84
-0.558539 -0.43877 2.42885 174 165 139
-0.540017 -0.44254 2.43091 167 157 135
-0.562798 -0.244226 2.45232 110 113 96
-0.560453 -0.284175 2.45278 109 112 93
-0.559357 -0.384343 2.45023 110 113 96
-0.542186 -0.42424 2.45327 141 138 119
-0.581432 -0.261761 2.43294 79 82 67
-0.539403 -0.423586 2.43192 144 137 117
-0.538786 -0.143691 2.41277 117 120 103
-0.539533 -0.222671 2.41132 114 117 99
-0.537803 -0.35839 2.4319 109 111 92
-0.52117 -0.0426219 2.4131 105 108 94
-0.520444 -0.083591 2.41254 103 107 90
-0.520462 -0.22297 2.43095 98 100 83
-0.521008 -0.343686 2.43538 94 96 81
-0.520525 -0.363259 2.43384 96 98 81
-0.521291 -0.0238188 2.43121 92 96 81
-0.501148 -0.323502 2.43363 97 98 90
-0.482826 -0.283824 2.43286 163 158 142
-0.483119 -0.303795 2.43061 154 150 135
-0.664843 -0.366267 2.31133 79 77 55
-0.677008 -0.38352 2.31153 83 81 62
-0.880273 -0.322698 2.07344 97 94 75
-0.838137 -0.382699 2.03139 109 110 94
-0.854833 -0.111185 2.05581 96 96 72
-0.860326 -0.124389 2.07396 95 94 74
-0.858931 -0.143548 2.07167 96 95 74
-0.858284 -0.16372 2.07278 97 96 74
-0.861824 -0.143552 2.09345 97 95 75
-0.862512 -0.162664 2.09311 96 94 74
-0.819551 -0.383469 2.0509 116 116 101
-0.801964 -0.399279 2.04934 119 122 104
-0.802938 -0.430777 2.05613 200 190 165
-0.863376 -0.364214 2.05442 100 98 82
-0.799796 -0.381667 2.07199 111 111 96
-0.823104 -0.0831581 2.09432 85 85 68
-0.839315 -0.183382 2.13106 97 93 71
-0.780759 -0.382507 2.07309 112 112 96
-0.781843 -0.426909 2.09297 191 181 156
-0.801325 -0.0835833 2.1323 89 88 67
-0.817595 -0.302764 2.1898 100 94 70
-0.777406 -0.380534 2.12914 90 90 73
-0.784428 -0.0828134 2.17532 90 88 64
-0.740326 -0.428272 2.13278 199 189 163
-0.795324 -0.343542 2.22847 84 79 58
-0.784353 -0.145245 2.2338 88 86 60
-0.77529 -0.203444 2.24815 80 77 51
-0.774586 -0.246101 2.2495 99 92 64
-0.773303 -0.267289 2.24689 93 87 59
-0.775023 -0.400174 2.26838 75 73 56
-0.756358 -0.124266 2.24769 84 81 54
-0.756516 -0.384039 2.29008 83 81 63
-0.720831 -0.0638067 2.21172 69 70 51
-0.760487 -0.164382 2.27308 84 81 54
-0.755427 -0.364534 2.29072 69 65 44
-0.721742 -0.0661174 2.19506 76 75 49
-0.751184 -0.282293 2.28498 95 89 63
-0.751909 -0.304091 2.28591 83 78 53
-0.754065 -0.390009 2.30668 65 61 40
-0.754479 -0.402828 2.30888 72 68 50
-0.703335 -0.0596779 2.19341 74 75 51
-0.73764 -0.104011 2.27181 82 79 51
-0.741095 -0.144 2.29226 78 75 48
-0.740027 -0.404035 2.3331 76 73 54
-0.739383 -0.125228 2.29101 80 77 49
-0.733339 -0.244972 2.30524 97 93 69
-0.734428 -0.36489 2.32985 66 62 42
-0.7199 -0.40054 2.35277 82 80 61
-0.680862 -0.379795 2.25161 70 69 53
-0.714091 -0.324973 2.34737 69 63 40
-0.71674 -0.344001 2.34901 65 60 38
-0.679266 -0.0826184 2.25313 71 72 50
-0.711907 -0.285219 2.34562 85 78 50
-0.681135 -0.0855169 2.31341 68 72 52
-0.696114 -0.304416 2.37007 71 65 38
-0.696498 -0.324237 2.37035 65 60 37
-0.692448 -0.225777 2.36522 81 74 43
-0.695305 -0.285221 2.36867 77 70 42
-0.695895 -0.384042 2.38966 73 70 50
-0.696892 -0.402989 2.39059 71 67 49
-0.63948 -0.385085 2.29428 92 93 77
-0.641928 -0.0841007 2.29364 76 83 73
-0.67694 -0.383848 2.41138 69 66 47
-0.678258 -0.401666 2.41202 75 72 54
-0.675115 -0.243942 2.38824 76 68 37
-0.675689 -0.363996 2.40878 66 61 40
-0.674096 -0.344967 2.40661 62 57 36
-0.672077 -0.408034 2.42326 74 71 56
-0.659654 -0.383937 2.43057 70 67 48
-0.659064 -0.402439 2.43175 80 77 59
-0.655096 -0.323402 2.42811 59 53 28
-0.656106 -0.342935 2.42979 58 53 30
-0.655186 -0.384153 2.45062 71 70 49
-0.653685 -0.398822 2.44906 77 75 55
-0.638653 -0.398758 2.47006 85 84 65
-0.582869 -0.442634 2.35249 150 143 121
-0.581836 -0.103994 2.36935 67 71 60
-0.601951 -0.144589 2.41333 68 67 45
-0.601506 -0.144885 2.43354 63 62 37
-0.601251 -0.184436 2.43168 64 62 40
-0.584351 -0.143469 2.45044 61 60 39
-0.582066 -0.404064 2.45249 113 115 101
-0.584339 -0.183202 2.45889 64 63 41
-0.541801 -0.383374 2.39487 111 114 98
-0.521394 -0.302991 2.41364 96 98 77
-0.520748 -0.323693 2.41225 97 98 78
-0.54008 -0.0622956 2.43156 108 112 92
-0.500973 -0.304593 2.41384 65 67 57
-0.521366 -0.0439486 2.42946 95 99 84
-0.521869 -0.0636855 2.43161 101 105 90
-0.520149 -0.103466 2.43167 104 107 92
-0.519265 -0.123741 2.43041 103 106 92
-0.520099 -0.143692 2.43093 103 106 91
-0.520769 -0.163744 2.43182 100 103 86
-0.519882 -0.0621791 2.45345 103 106 87
-0.518924 -0.0829059 2.45114 93 95 77
-0.520534 -0.103215 2.45385 102 104 83
-0.520217 -0.122702 2.45431 93 95 74
-0.5203 -0.163983 2.45456 100 102 81
-0.520098 -0.183047 2.45315 101 103 82
-0.520001 -0.224348 2.44974 113 115 97
-0.520144 -0.104032 2.47328 83 87 75
-0.519885 -0.123064 2.47272 81 84 73
-0.51998 -0.164201 2.47155 90 92 78
-0.519545 -0.181286 2.47023 102 102 88
-0.503566 -0.103171 2.46521 146 149 142
-0.504476 -0.126049 2.46647 138 142 137
-0.502229 -0.0837481 2.45262 149 149 142
-0.536909 -0.38379 2.46472 100 104 89
-0.703786 -0.100188 2.23579 89 86 58
-0.675159 -0.36821 2.29069 75 73 52
-0.859367 -0.283924 2.05241 100 96 77
-0.877074 -0.380961 2.07559 97 98 80
-0.859736 -0.144887 2.05489 99 98 78
-0.861472 -0.163228 2.0556 97 96 76
-0.880022 -0.283703 2.07342 89 86 68
-0.877083 -0.304458 2.08944 99 96 76
-0.878011 -0.323853 2.09083 102 98 80
-0.824356 -0.428227 2.05499 190 182 159
-0.800483 -0.421876 2.09149 191 182 160
-0.824173 -0.102026 2.09537 90 89 69
-0.837166 -0.244139 2.15135 95 91 69
-0.780912 -0.422842 2.11292 187 178 156
-0.783228 -0.0859528 2.13439 87 86 63
-0.778253 -0.104213 2.15172 89 87 63
-0.760031 -0.422809 2.15023 184 177 155
-0.782762 -0.14291 2.17638 91 88 64
-0.763563 -0.123236 2.17293 88 85 60
-0.783436 -0.183611 2.19498 85 82 58
-0.794731 -0.323588 2.22713 96 90 69
-0.762572 -0.164371 2.19313 87 85 58
-0.741306 -0.42314 2.19334 175 168 147
-0.721467 -0.425291 2.19331 187 178 154
-0.721246 -0.420783 2.2132 167 161 141
-0.7003 -0.425575 2.21274 189 180 156
-0.702709 -0.425673 2.1961 179 172 148
-0.682409 -0.425824 2.23336 189 180 155
-0.701763 -0.199368 2.27158 87 81 54
-0.658123 -0.421826 2.25353 164 158 136
-0.661579 -0.423416 2.29273 153 150 130
-0.674128 -0.305376 2.40442 69 64 37
-0.654252 -0.282345 2.42896 69 61 34
-0.63478 -0.245706 2.44978 68 61 32
-0.59939 -0.401209 2.412 93 92 76
-0.560012 -0.400746 2.43216 130 131 114
-0.560956 -0.203264 2.39352 103 109 100
-0.559424 -0.222562 2.43592 109 112 95
-0.580977 -0.242519 2.452 70 70 50
-0.56207 -0.324311 2.43698 115 120 107
-0.561457 -0.343941 2.43502 113 118 105
-0.539818 -0.365096 2.39346 105 108 90
-0.501369 -0.0441369 2.43132 75 79 74
-0.502804 -0.0631943 2.43026 66 69 62
-0.500129 -0.0835067 2.43048 79 81 74
-0.642088 -0.242536 2.37485 70 65 43
-0.777363 -0.32425 2.11247 98 92 71
-0.633198 -0.378877 2.30985 63 60 43
-0.600252 -0.0651639 2.39135 47 62 57
-0.859682 -0.302385 2.05118 106 102 83
-0.877826 -0.161506 2.07352 91 90 73
-0.879673 -0.203629 2.07509 90 87 70
-0.881831 -0.243276 2.07375 87 85 67
-0.881508 -0.262888 2.07436 87 85 67
-0.88098 -0.205663 2.09079 90 87 69
-0.877451 -0.26236 2.09155 90 87 69
-0.876648 -0.282625 2.08967 93 90 71
-0.860787 -0.104001 2.09261 94 93 74
-0.840742 -0.0837764 2.07618 81 83 69
-0.855002 -0.123768 2.10809 101 98 78
-0.85527 -0.143509 2.10808 100 98 76
-0.856322 -0.16385 2.10883 99 95 74
-0.85633 -0.204287 2.111 96 93 72
-0.859083 -0.223935 2.11145 97 93 72
-0.843079 -0.103515 2.1139 95 93 72
-0.822374 -0.40545 2.08959 156 153 134
-0.802474 -0.397249 2.07676 137 137 121
-0.837329 -0.124286 2.12921 97 94 73
-0.822933 -0.0849833 2.13222 92 91 70
-0.838601 -0.224019 2.15128 91 87 65
-0.77715 -0.39584 2.08757 189 183 168
-0.818589 -0.103987 2.15085 95 93 70
-0.798943 -0.0849491 2.17125 92 89 66
-0.780945 -0.0637119 2.14994 83 83 64
-0.798424 -0.105727 2.18857 94 91 67
-0.782333 -0.0656829 2.17444 85 84 63
-0.743835 -0.398682 2.1579 146 145 127
-0.718067 -0.398047 2.18991 107 107 91
-0.743774 -0.163502 2.25412 80 77 51
-0.72157 -0.183852 2.29276 80 76 49
-0.699891 -0.0693833 2.25139 68 72 53
-0.700982 -0.0834274 2.29242 73 73 49
-0.677697 -0.0881247 2.33069 73 74 51
-0.662056 -0.142438 2.35371 73 71 45
-0.641357 -0.0864241 2.31078 76 79 58
-0.66134 -0.183876 2.37348 74 70 43
-0.642901 -0.104291 2.35273 70 71 46
-0.637124 -0.106308 2.38892 66 68 47
-0.619951 -0.10583 2.41235 65 65 42
-0.621605 -0.183403 2.41315 67 63 39
-0.582772 -0.388513 2.47326 112 113 96
-0.541656 -0.101987 2.39438 122 126 112
-0.557784 -0.127862 2.42749 100 105 88
-0.857396 -0.358519 2.14729 112 109 92
-0.535956 -0.166151 2.46912 116 117 92
-0.741438 -0.0646661 2.23371 76 75 51
-0.893084 -0.303519 2.08977 97 94 77
-0.524844 -0.0457931 2.46368 106 108 84
-0.848623 -0.270177 2.03038 102 101 82
-0.859186 -0.283981 2.03929 105 102 81
-0.856318 -0.302761 2.03789 107 103 83
-0.860256 -0.322825 2.05126 106 103 84
-0.850926 -0.414836 2.04049 182 180 165
-0.845094 -0.383749 2.11286 117 118 101
-0.821112 -0.0853341 2.1126 92 91 71
-0.82206 -0.341593 2.13411 98 94 74
-0.817941 -0.124154 2.17079 96 94 70
-0.804293 -0.342613 2.17588 93 89 67
-0.805548 -0.36354 2.17595 89 85 65
-0.805848 -0.381359 2.17688 99 98 80
-0.784058 -0.302971 2.19423 92 88 64
-0.785298 -0.323096 2.19582 88 84 62
-0.782384 -0.34231 2.19545 79 74 55
-0.799456 -0.164526 2.2132 87 84 61
-0.76282 -0.163581 2.2145 82 79 54
-0.756895 -0.105465 2.1929 82 79 53
-0.744507 -0.163896 2.21085 87 84 57
-0.749378 -0.326831 2.24039 76 70 46
-0.740163 -0.380565 2.25145 83 82 64
-0.727617 -0.347589 2.25739 66 61 41
-0.724822 -0.383138 2.27598 73 71 53
-0.701582 -0.406493 2.2728 123 123 107
-0.663084 -0.325927 2.28917 66 61 37
-0.646954 -0.343641 2.33306 64 60 37
-0.644723 -0.364964 2.35318 62 58 39
-0.621202 -0.422661 2.33401 150 145 123
-0.601776 -0.42269 2.33323 150 146 125
-0.600299 -0.384508 2.39033 79 79 62
-0.582622 -0.424395 2.35399 142 138 117
-0.582145 -0.421811 2.37352 138 136 118
-0.581449 -0.361937 2.39362 65 63 47
-0.560775 -0.423706 2.37493 144 140 118
-0.57468 -0.364401 2.41135 72 74 63
-0.556164 -0.320425 2.37382 74 75 57
-0.558783 -0.34139 2.39771 80 83 69
-0.559268 -0.361425 2.39481 83 87 73
-0.539463 -0.387038 2.43338 126 126 112
-0.539737 -0.403466 2.43241 134 131 114
-0.543144 -0.424141 2.41528 153 146 125
-0.539937 -0.183173 2.43068 119 122 101
-0.541018 -0.0638715 2.39447 131 135 123
-0.538113 -0.0632518 2.4117 123 128 112
-0.538771 -0.0833571 2.4294 109 113 94
-0.540053 -0.122792 2.42947 116 119 99
-0.538949 -0.165329 2.45308 118 119 96
-0.539096 -0.105318 2.45073 123 124 100
-0.538455 -0.222412 2.45194 105 104 84
-0.521227 -0.263601 2.44869 110 111 95
-0.519668 -0.302974 2.45009 99 99 83
-0.53306 -0.0446664 2.4636 116 118 93
-0.501917 -0.103212 2.45162 124 125 116
-0.502016 -0.121877 2.45209 127 127 119
-0.503328 -0.14336 2.45226 112 112 105
-0.820308 -0.186515 2.03027 102 100 78
