ply
format ascii 1.0
comment Created by Open3D
element vertex 180
property double x
property double y
property double z
property uchar red
property uchar green
property uchar blue
end_header
-0.0650401 -1.00353 1.2068 103 90 77
-0.0552125 -1.04165 1.16063 130 112 92
0.0883806 -1.07795 1.12658 88 77 68
0.0341913 -0.990707 1.14466 102 93 83
0.0781431 -0.966478 1.11475 85 73 62
-0.0409049 -1.00437 1.17391 101 88 74
-0.042022 -0.965146 1.18505 97 86 75
0.0436166 -0.988307 1.1021 159 140 118
0.0422403 -1.0632 1.11686 157 138 118
-0.0271695 -0.999432 1.18638 81 66 58
-0.0168712 -1.03613 1.14065 152 134 114
-0.00116723 -1.04288 1.15033 114 100 84
0.0323619 -1.07598 1.14094 106 95 79
0.0182071 -1.02734 1.15268 101 92 81
0.0596625 -1.00278 1.0924 168 149 129
0.0999444 -0.998927 1.09266 133 117 102
-0.0810077 -0.961007 1.2076 96 87 77
0.0137013 -1.0282 1.16774 68 57 45
0.0805297 -0.986246 1.09808 146 128 110
-0.0623325 -1.02261 1.18974 103 91 75
-0.0657677 -1.02272 1.20729 104 96 85
0.0395109 -1.02331 1.11518 135 119 101
0.019584 -1.05819 1.13284 140 123 104
-0.0993481 -0.984886 1.19807 102 91 75
-0.0970917 -1.02504 1.21478 98 86 71
-0.0671702 -0.961573 1.20411 132 127 119
-0.00694256 -0.98183 1.16581 101 90 80
0.0589867 -1.02235 1.13068 98 86 73
0.0279054 -1.06029 1.12159 169 148 128
-0.0795022 -0.983206 1.19343 95 84 70
0.0609515 -1.04761 1.133 102 88 75
-0.0755675 -0.993004 1.20907 138 137 130
0.0798639 -1.02328 1.12833 76 64 54
0.0162594 -1.00208 1.14879 98 88 75
0.11845 -1.06559 1.11614 79 67 60
-0.0764172 -1.03886 1.17543 148 130 109
0.0630208 -1.07847 1.10208 169 150 130
0.0202641 -0.981074 1.11264 162 143 123
-0.0389576 -0.963722 1.17457 107 97 85
0.0529523 -1.06286 1.10225 163 147 128
0.0225253 -1.03849 1.16521 111 102 93
0.102341 -1.02551 1.11712 72 60 52
-0.0184819 -0.97982 1.1361 153 133 113
0.0994861 -1.04394 1.12885 73 61 53
-0.0842622 -1.02182 1.22605 100 89 77
-0.101212 -0.96862 1.21348 96 89 80
-0.022027 -1.01935 1.16696 102 90 75
-0.0245582 -0.963591 1.16971 107 93 82
0.0385817 -0.980915 1.10757 154 135 115
-0.000638309 -1.00492 1.15333 102 89 75
0.0492174 -1.05229 1.10241 162 144 124
0.080341 -1.04351 1.13147 83 72 62
0.106017 -1.06666 1.14311 70 59 51
-0.0758528 -1.00612 1.21405 116 108 98
-0.000173277 -1.03662 1.16618 100 91 81
0.0814304 -1.05764 1.12792 90 76 64
0.0007796 -1.0219 1.1365 131 116 98
0.0198609 -1.04243 1.135 119 106 89
-0.0409791 -1.00262 1.15592 147 127 108
-0.0454694 -0.983845 1.18727 96 84 72
-0.035387 -1.06091 1.15583 141 124 105
-0.043431 -1.00158 1.18854 113 106 95
0.0678907 -1.00231 1.12192 83 69 57
-0.00598976 -1.0029 1.16603 103 91 80
0.0255317 -1.03582 1.11092 161 143 123
0.0384061 -1.06259 1.13373 128 111 94
-0.0121625 -0.972053 1.13972 146 127 109
0.100683 -1.08175 1.11569 121 106 95
0.100689 -1.06356 1.12846 73 62 54
-0.100394 -1.0119 1.23056 114 105 92
-0.081354 -1.02291 1.21281 105 92 77
-0.085785 -1.01176 1.22495 86 74 62
-0.0792557 -1.02345 1.19295 125 110 92
-0.0794258 -1.02473 1.17687 136 120 101
-0.0753862 -1.00727 1.17961 126 110 93
-0.0611437 -1.00344 1.17398 129 111 94
-0.0606307 -1.02273 1.17222 129 112 93
-0.0793383 -1.00419 1.19025 115 100 83
-0.061343 -1.00367 1.19271 108 95 80
-0.0536984 -0.998291 1.16039 155 134 113
-0.0394925 -1.02495 1.15824 135 118 100
-0.0389835 -1.04165 1.15772 137 120 102
-0.0561004 -0.987647 1.17388 117 102 84
-0.0418385 -0.98365 1.17257 120 104 88
-0.0205611 -1.0242 1.15464 124 109 91
-0.0209008 -1.04194 1.15202 130 114 96
-0.0605801 -0.984961 1.19081 99 88 75
-0.0198897 -1.00363 1.15535 125 109 91
-0.0201341 -1.06225 1.1493 137 120 102
-0.0605513 -0.965641 1.1925 119 112 105
-0.0238407 -0.982222 1.15125 125 109 92
-0.00179241 -1.06237 1.14654 130 114 97
-0.0213485 -0.983713 1.17036 112 102 91
-0.00223126 -1.02381 1.15225 112 98 82
-0.0219664 -1.00514 1.17095 104 94 82
0.0187983 -1.06278 1.15235 112 98 84
-0.00210478 -1.0252 1.1648 107 97 86
0.0166713 -1.04107 1.15331 103 91 77
0.0192736 -0.983908 1.14891 108 100 90
-0.0122669 -1.02566 1.14231 134 116 96
0.0369577 -1.04508 1.15062 95 82 69
-0.0395277 -0.984779 1.1562 138 120 102
-0.00494076 -0.979511 1.12655 163 142 123
-0.0193556 -0.964433 1.15464 111 97 82
0.00504427 -0.980586 1.11983 162 143 124
0.0217481 -1.02137 1.11752 150 133 113
0.0215995 -0.970203 1.11979 141 124 106
0.0322933 -0.995445 1.10387 174 154 131
0.0430901 -1.00067 1.09816 170 150 129
0.039896 -0.967469 1.11728 125 109 94
0.0609037 -1.01932 1.08616 176 157 136
0.064885 -1.02753 1.08176 178 157 137
0.0603549 -0.986405 1.09946 153 134 114
0.0583432 -0.97667 1.10589 134 116 99
0.0696326 -1.01388 1.08426 178 157 137
0.05993 -0.965992 1.11545 103 89 75
0.0779355 -1.00112 1.08849 166 146 126
0.0574996 -0.964528 1.12543 100 90 80
0.0815891 -0.980344 1.11284 84 71 60
0.0957366 -0.990788 1.09875 112 97 84
0.0988978 -0.982963 1.11112 75 63 56
0.102285 -1.00285 1.113 80 69 62
0.0375676 -1.04034 1.13224 123 107 91
0.0411846 -1.04289 1.11297 154 135 115
0.0431544 -1.07485 1.11043 174 153 133
0.0603964 -1.0621 1.11116 152 134 115
0.0591122 -1.04136 1.11254 139 122 104
0.0384391 -1.02361 1.13638 101 89 76
0.0789249 -1.06297 1.11202 143 126 108
0.0775863 -1.08375 1.10218 170 150 130
0.0591639 -1.02675 1.11865 113 98 83
0.0772522 -1.04534 1.11695 123 107 92
0.0395273 -1.00249 1.13444 94 83 69
0.0348281 -1.03045 1.1487 100 92 82
0.0534322 -1.02955 1.14554 79 66 53
0.0597774 -1.00596 1.13133 77 66 53
0.0729009 -1.03091 1.12008 109 94 79
0.0798798 -1.08135 1.11346 148 130 112
0.0979297 -1.06408 1.11688 93 79 70
0.0756751 -1.00485 1.12911 68 57 45
0.0960963 -1.02349 1.12707 75 64 56
0.102493 -1.08004 1.12735 71 60 52
0.117866 -1.0627 1.13176 76 64 56
-0.0520694 -1.02835 1.16129 132 114 96
0.0624274 -1.08047 1.10959 161 142 122
0.0426495 -1.06611 1.15126 94 80 67
0.0553966 -1.05468 1.13121 112 97 83
0.0541137 -1.05899 1.14778 99 88 76
0.0522218 -0.990474 1.13585 77 66 54
0.0570783 -1.04998 1.14857 89 78 66
0.0984423 -1.00369 1.12492 68 57 49
-0.0988451 -0.978464 1.22561 110 104 96
-0.0618052 -0.988675 1.20654 107 101 92
-0.005659 -0.971416 1.16339 83 69 56
0.0986233 -1.0429 1.11393 71 59 52
-0.057994 -1.043 1.17363 134 117 98
-0.0464128 -1.03813 1.17068 129 112 94
-0.0468492 -1.05548 1.16435 159 140 119
-0.0409578 -1.02204 1.17014 115 100 83
0.00185992 -1.04379 1.14 131 115 96
0.0186703 -1.02118 1.1356 113 99 83
-0.000247701 -0.984669 1.15385 112 103 92
0.020597 -1.00584 1.13516 109 95 79
0.0399225 -0.987719 1.13803 102 95 86
0.073472 -0.999675 1.11703 85 73 62
0.0780961 -0.98827 1.12472 97 89 81
-0.0604371 -1.04145 1.18885 112 97 80
-0.0471611 -1.03747 1.18827 105 91 76
-0.0157007 -1.05524 1.13976 162 143 123
-0.0424369 -1.02079 1.18737 99 90 77
0.00517505 -1.0093 1.13594 126 111 94
0.0316868 -1.00295 1.14366 131 126 119
-0.101528 -0.977927 1.20865 102 92 79
-0.0927305 -1.01874 1.20253 105 94 78
-0.0779104 -0.963447 1.19878 117 112 105
-0.0514055 -0.962818 1.18231 108 102 96
-0.0330939 -0.967172 1.15967 98 86 71
-0.114046 -0.992508 1.20059 114 99 80
-0.0989623 -1.00085 1.19063 119 105 87
-0.0559836 -1.0567 1.16121 139 121 101
