ply
format ascii 1.0
comment Created by Open3D
element vertex 232
property double x
property double y
property double z
property uchar red
property uchar green
property uchar blue
end_header
1.18613 -0.123593 0.0331275 175 177 175
1.16983 -0.159827 0.0831015 176 176 174
1.21791 -0.223448 -0.0271631 240 232 212
1.13172 -0.180967 0.0115284 171 175 172
1.13589 -0.21854 -0.00556859 167 171 167
1.17877 -0.163681 0.0531559 174 176 174
1.24338 -0.109842 0.016169 188 191 194
1.16758 -0.166516 0.00582242 187 189 193
1.20264 -0.20312 -0.00364054 175 175 171
1.11353 -0.238793 0.0122791 180 185 189
1.11601 -0.220891 0.0111338 175 179 180
1.15197 -0.198597 0.0336194 184 189 194
1.17983 -0.183994 0.0693155 172 174 172
1.17226 -0.200365 0.0520497 174 176 175
1.19741 -0.143567 0.0327348 175 178 177
1.21583 -0.222072 -0.0103723 214 211 193
1.10542 -0.227924 0.0148542 175 179 180
1.20478 -0.125478 -0.00150247 175 176 173
1.22236 -0.0676768 0.029542 178 180 178
1.19726 -0.145201 0.0534427 172 174 172
1.17611 -0.242405 0.0102293 171 174 170
1.19745 -0.103588 0.0519098 175 177 175
1.20414 -0.0653849 0.0329421 176 178 175
1.22761 -0.187782 -0.0456652 244 239 220
1.24405 -0.1233 0.0177252 174 178 173
1.24344 -0.145378 -0.0476983 207 200 180
1.22634 -0.183096 0.0185574 169 173 168
1.16437 -0.20429 0.075195 174 176 176
1.11825 -0.223283 -0.00320353 177 180 181
1.20012 -0.243535 0.0326891 170 172 169
1.18324 -0.204186 0.0137424 174 176 174
1.24184 -0.148642 -0.0254747 225 219 205
1.19465 -0.0856664 0.0484288 175 177 175
1.23761 -0.163556 -0.0280215 202 197 176
1.2109 -0.261674 0.00501713 170 172 168
1.20192 -0.141366 -0.00378623 179 180 176
1.17975 -0.264487 0.0338022 171 173 171
1.18341 -0.181467 0.0163535 177 179 178
1.18022 -0.143251 0.0525455 175 177 175
1.13639 -0.224842 0.047302 183 188 195
1.19675 -0.14253 0.011916 177 179 177
1.15814 -0.262581 0.0118531 171 174 170
1.17867 -0.281614 0.0332951 167 169 167
1.22882 -0.157726 -0.0181094 232 228 209
1.14749 -0.209943 0.0463924 183 188 195
1.18222 -0.122709 0.0527289 175 177 175
1.19466 -0.2607 0.0316096 169 172 169
1.20269 -0.105469 0.0136018 174 176 172
1.19075 -0.25873 0.0455105 168 172 169
1.12747 -0.183324 -0.00422238 168 173 165
1.18496 -0.24481 0.0547697 171 173 171
1.16546 -0.244978 0.015339 169 173 168
1.21142 -0.0954975 0.00991126 173 175 171
1.21619 -0.0809955 0.0482156 177 178 176
1.2442 -0.105414 0.0308343 178 180 179
1.24602 -0.205579 -0.0474658 243 238 214
1.18558 -0.14641 0.0165721 181 183 184
1.19445 -0.124348 0.0523555 173 175 174
1.18473 -0.223556 0.0874002 172 173 171
1.23793 -0.1632 -0.0472733 221 216 195
1.11729 -0.202512 0.0329629 173 177 177
1.2387 -0.121698 0.0328953 172 175 170
1.19148 -0.202038 0.0683378 171 173 171
1.16033 -0.24367 0.0321146 170 173 170
1.2173 -0.144283 -0.0100804 204 202 194
1.19771 -0.204056 0.0329402 172 174 172
1.1763 -0.182563 0.0527071 174 176 174
1.1752 -0.224487 0.0109566 171 174 169
1.20779 -0.0723419 0.0190572 175 177 173
1.20181 -0.183706 -0.00298959 177 177 171
1.21585 -0.0828376 0.0322916 177 179 178
1.15714 -0.223347 0.0918241 174 176 176
1.21541 -0.241261 0.0104565 169 172 168
1.16392 -0.223563 0.0527543 174 176 176
1.13842 -0.184436 -0.0053373 175 179 177
1.233 -0.121488 0.0467289 173 175 173
1.18187 -0.202459 0.0724516 171 173 171
1.138 -0.161453 -0.00646626 176 180 178
1.12041 -0.205052 -0.00611338 183 186 191
1.19426 -0.242051 0.0508966 168 172 169
1.186 -0.243726 0.03318 171 173 171
1.21745 -0.183571 -0.0122913 214 210 193
1.18246 -0.223349 -0.00430889 171 175 168
1.19951 -0.22295 0.0117334 173 174 170
1.19761 -0.264385 -0.00868164 145 147 145
1.16534 -0.183977 0.0764574 174 176 174
1.19901 -0.103309 0.032952 175 177 174
1.16348 -0.191322 0.0436637 184 189 194
1.21825 -0.145858 0.0487203 171 174 169
1.16022 -0.166787 -0.00623818 179 182 182
1.19008 -0.215319 0.0638234 171 173 171
1.11824 -0.242441 0.0335512 183 188 195
1.19815 -0.16405 0.0320824 172 174 171
1.21666 -0.12643 0.0342793 181 186 186
1.21317 -0.1013 0.0333546 188 191 194
1.19891 -0.125046 0.0329119 176 178 176
1.18401 -0.145499 0.0328185 179 182 183
1.19692 -0.182547 0.0109049 173 175 171
1.18051 -0.164235 0.0333047 179 182 182
1.17918 -0.18156 0.0321972 177 179 179
1.16264 -0.184595 0.0318246 184 189 194
1.16571 -0.206093 0.0537508 177 179 180
1.11638 -0.243218 0.0479026 178 182 186
1.14353 -0.209605 0.0311383 182 187 191
1.13585 -0.220923 0.0337416 181 186 191
1.19974 -0.125279 0.0120167 175 177 174
1.17638 -0.163647 0.0164838 182 186 188
1.11715 -0.220033 0.0321625 171 175 173
1.16316 -0.185852 0.0122196 185 189 194
1.15493 -0.203571 0.0123801 177 181 182
1.11737 -0.239199 -0.00285612 170 173 171
1.14384 -0.203879 0.010808 177 181 182
1.21645 -0.127286 0.00410133 187 190 193
1.13461 -0.216202 0.0113608 184 188 194
1.16087 -0.186588 -0.00629357 181 184 182
1.15975 -0.199961 -0.00546039 172 177 173
1.13727 -0.204321 -0.00422636 172 176 174
1.10388 -0.226042 -0.0104133 183 186 192
1.2175 -0.1648 -0.0105867 197 195 182
1.11117 -0.200492 0.0516507 180 185 189
1.10835 -0.21058 0.051655 178 183 186
1.10558 -0.224453 0.0507102 176 180 182
1.12892 -0.169797 0.0213064 183 186 192
1.12243 -0.183825 0.0330356 178 182 185
1.13347 -0.164089 0.0270694 175 179 178
1.10664 -0.225667 0.0322812 176 180 182
1.10857 -0.213111 0.0354786 181 186 191
1.13579 -0.164238 0.0117235 175 178 177
1.12388 -0.186793 0.01372 175 179 178
1.11921 -0.202181 0.011958 174 178 177
1.21721 -0.101973 -0.00452512 171 173 168
1.16774 -0.146438 0.0844855 176 176 176
1.25334 -0.181836 -0.0118768 210 206 184
1.21512 -0.262385 -0.00936552 98 100 99
1.25138 -0.196244 -0.0102662 201 200 188
1.16822 -0.14408 0.0765105 175 177 175
1.16525 -0.163516 0.0872325 175 176 175
1.16101 -0.182686 0.0890792 174 176 175
1.17646 -0.141994 0.0709669 175 176 174
1.17268 -0.16268 0.0697303 174 176 174
1.15723 -0.204601 0.0897205 174 176 175
1.18485 -0.103385 0.0541628 175 177 175
1.16585 -0.163681 0.0769834 174 176 174
1.16201 -0.222156 0.0717032 174 176 176
1.19746 -0.0838334 0.032812 175 177 175
1.15962 -0.242784 0.073451 173 175 175
1.189 -0.11102 0.0329025 175 177 175
1.20357 -0.0852582 0.0154026 175 177 173
1.1575 -0.245089 0.0526686 173 175 175
1.17651 -0.203098 0.0328227 174 176 174
1.21676 -0.0820957 0.0113842 174 176 172
1.18818 -0.129198 0.0207115 176 177 175
1.1667 -0.225482 0.032663 172 175 173
1.17135 -0.217875 0.0287739 174 176 175
1.19732 -0.161991 0.0113883 174 175 171
1.20796 -0.11094 0.00181338 173 175 171
1.20314 -0.162477 -0.00183771 175 175 171
1.20062 -0.203133 0.0123737 172 174 171
1.24344 -0.164196 -0.00589224 191 190 180
1.20023 -0.223504 -0.00664818 186 186 177
1.18133 -0.243532 -0.00292643 170 173 168
1.26069 -0.162223 -0.0269858 200 195 173
1.24143 -0.181188 -0.00413699 179 181 171
1.21735 -0.203107 -0.0115774 219 216 199
1.179 -0.263081 -0.00515109 169 171 168
1.16398 -0.26839 -0.000682603 171 174 171
1.23156 -0.178093 -0.0283667 232 227 208
1.22606 -0.184831 -0.0272087 232 227 208
1.22275 -0.204158 -0.0272025 242 235 215
1.19964 -0.243158 -0.00805209 167 167 160
1.20804 -0.230584 -0.0184452 225 217 205
1.23245 -0.179338 -0.048089 240 236 217
1.22397 -0.202967 -0.0483119 247 240 219
1.19521 -0.131786 0.0628686 173 175 173
1.19475 -0.145894 0.0658499 172 174 172
1.19356 -0.165649 0.0688889 172 174 172
1.19315 -0.183812 0.0697085 171 173 171
1.18754 -0.206062 0.0837522 172 174 172
1.18376 -0.245091 0.090125 171 173 171
1.18429 -0.223039 0.0725757 170 172 170
1.19938 -0.164583 0.0550031 171 173 171
1.18191 -0.243711 0.0728191 170 173 170
1.1983 -0.183388 0.0535653 171 173 171
1.17864 -0.262586 0.0726711 170 173 171
1.19697 -0.203695 0.0535664 171 173 171
1.19539 -0.222505 0.0528799 169 172 170
1.18857 -0.232104 0.05382 171 173 171
1.19632 -0.181868 0.0321703 172 174 172
1.18204 -0.26308 0.053123 170 173 171
1.19846 -0.224911 0.0338312 171 173 171
1.19517 -0.241955 0.0124377 171 173 169
1.18168 -0.263655 0.0133976 172 174 172
1.17514 -0.281533 0.013983 171 173 171
1.2017 -0.263425 0.0138219 170 172 169
1.17888 -0.282251 -0.00549721 170 171 169
1.21429 -0.243681 -0.011044 183 181 172
1.19295 -0.276128 -0.00957727 147 149 147
1.22527 -0.133204 0.046625 172 174 170
1.21388 -0.163504 0.0491566 169 173 169
1.23357 -0.140322 0.0299579 170 173 169
1.22651 -0.144569 0.0395227 170 174 169
1.21205 -0.18191 0.0479052 169 173 170
1.22383 -0.162722 0.0341957 169 173 168
1.2204 -0.182419 0.0328555 169 173 169
1.21093 -0.196177 0.0439813 169 173 170
1.22975 -0.157022 0.0258975 170 172 168
1.21557 -0.202648 0.031819 169 173 169
1.24105 -0.143774 0.0129153 169 174 167
1.23442 -0.16273 0.0123005 169 173 168
1.22856 -0.170048 0.0208887 169 173 169
1.21199 -0.219976 0.0276325 170 172 169
1.2242 -0.204445 0.0169779 170 172 169
1.23407 -0.184727 0.00858067 170 172 168
1.22111 -0.222946 0.013705 170 172 168
1.23193 -0.201787 0.00798601 170 172 168
1.19038 -0.275843 0.0254972 170 173 170
1.25858 -0.159877 -0.0110207 216 215 196
1.2439 -0.203832 -0.00624362 199 197 185
1.23147 -0.214267 0.00387157 172 172 168
1.19588 -0.280589 0.01481 169 172 169
1.24061 -0.223929 -0.00741701 204 200 187
1.2545 -0.183339 -0.0277312 227 223 201
1.25034 -0.19586 -0.0268668 232 227 206
1.24662 -0.206466 -0.0274081 238 232 211
1.24442 -0.222515 -0.0283914 239 232 207
1.26234 -0.162199 -0.0474723 212 206 183
1.25423 -0.18268 -0.0466189 236 232 212
1.24964 -0.196177 -0.0419801 239 235 215
1.1331 -0.183065 0.0299817 168 171 167
1.16393 -0.219765 0.0183478 167 171 166
1.14667 -0.179531 -0.0174612 211 207 189
1.17162 -0.209734 -0.0063815 167 172 163
