ply
format ascii 1.0
comment Created by Open3D
element vertex 350
property double x
property double y
property double z
property uchar red
property uchar green
property uchar blue
end_header
-1.11712 -1.22179 -0.104811 48 52 52
-1.06359 -1.27565 -0.0775993 49 41 40
-1.07851 -1.16331 -0.0726685 72 70 69
-1.16724 -1.15235 -0.0404299 37 42 42
-1.06146 -1.22645 -0.125926 31 27 26
-1.02455 -1.27425 -0.0435676 66 63 60
-1.02317 -1.19952 -0.101909 55 52 49
-1.07331 -1.16206 -0.0824118 32 32 32
-1.05889 -1.24188 -0.107216 65 58 51
-1.06262 -1.20557 -0.10679 39 37 34
-1.05901 -1.24294 -0.086397 45 43 40
-1.04209 -1.24096 -0.125863 38 31 29
-1.18598 -1.23068 0.0327411 36 43 45
-1.08053 -1.22302 -0.0859521 34 36 37
-1.00419 -1.24648 -0.126752 24 20 20
-1.14167 -1.18554 -0.0678127 40 37 36
-0.998364 -1.26061 -0.126729 27 23 23
-1.00725 -1.22762 -0.126092 24 21 20
-1.04257 -1.26544 -0.0685908 62 57 53
-1.04294 -1.26019 -0.0329621 62 59 54
-1.16569 -1.1671 -0.0694066 29 30 32
-1.14113 -1.22535 0.0300953 27 32 36
-1.03998 -1.27421 -0.0476939 51 47 46
-1.13456 -1.23394 -0.0630859 53 46 45
-1.12003 -1.24205 -0.0074611 30 32 33
-1.1594 -1.18554 -0.0890817 38 37 37
-1.08298 -1.22458 -0.145793 45 40 37
-1.15793 -1.18335 0.0113544 23 28 34
-1.11738 -1.16239 -0.125174 19 22 27
-1.02202 -1.26387 -0.0496973 61 62 59
-1.1392 -1.20655 0.0464182 27 35 39
-1.00829 -1.2458 -0.108032 61 57 54
-1.05879 -1.27927 -0.067783 62 57 55
-1.1383 -1.23992 -0.0464537 50 44 41
-1.08222 -1.24558 -0.0284427 34 37 38
-1.0389 -1.22425 -0.0653324 43 38 35
-1.11976 -1.22295 -0.0867262 44 44 44
-1.1574 -1.21945 -0.047205 51 47 43
-1.17689 -1.18557 -0.0283406 26 30 35
-1.16885 -1.162 -0.010349 35 41 43
-1.0829 -1.228 -0.0491033 43 42 41
-1.14305 -1.20414 -0.089288 38 36 36
-1.10005 -1.22487 -0.0884896 33 35 35
-1.02133 -1.22142 -0.107709 40 36 35
-1.07521 -1.20018 -0.064084 31 35 38
-1.14136 -1.24211 -0.00689241 30 32 33
-1.02168 -1.20342 -0.0873935 45 39 37
-1.13876 -1.20488 -0.0488293 38 35 33
-1.09342 -1.27356 -0.0435312 39 39 39
-1.06105 -1.22478 -0.0890586 46 42 40
-1.12333 -1.18547 -0.0495848 55 51 49
-1.16708 -1.15895 -0.0316017 18 23 29
-1.05932 -1.22487 -0.147715 20 17 16
-1.07931 -1.27487 -0.0606253 51 48 48
-1.00058 -1.26448 -0.0486978 76 80 80
-1.08216 -1.24262 -0.0891599 51 49 47
-1.14135 -1.26497 -0.00701875 39 39 40
-1.10566 -1.27636 -0.0106207 78 88 91
-1.08231 -1.25809 -0.0856391 50 46 43
-1.10343 -1.18721 -0.0878065 51 48 48
-1.04285 -1.22712 -0.051474 45 41 37
-1.11854 -1.183 -0.131244 52 49 48
-1.14622 -1.20646 0.0130113 22 25 29
-1.09933 -1.20621 -0.144807 43 40 36
-1.08209 -1.24484 -0.0472957 37 38 40
-1.10621 -1.16671 -0.107755 40 37 40
-1.12242 -1.23008 -0.00821685 36 37 37
-1.14117 -1.22407 -0.0463046 51 47 45
-1.05901 -1.16394 -0.0481553 31 29 29
-1.03163 -1.25682 -0.120964 78 74 71
-1.07736 -1.1851 -0.0867715 31 33 37
-1.15945 -1.20245 0.0101002 20 25 31
-1.08486 -1.26517 -0.012605 61 67 71
-1.04741 -1.17034 -0.052139 48 44 43
-1.06035 -1.16275 -0.0667136 41 40 40
-1.03957 -1.26201 -0.0851094 61 55 50
-1.1629 -1.20596 -0.026825 35 36 37
-1.17621 -1.18284 -0.0122608 26 31 36
-1.10162 -1.24159 -0.0276652 30 32 33
-1.06171 -1.23924 -0.126519 81 74 68
-1.02069 -1.22298 -0.0686671 44 39 37
-1.10019 -1.18301 -0.12625 29 29 31
-0.999243 -1.2479 -0.0856076 76 69 63
-1.14421 -1.25438 0.0459712 23 26 31
-1.08027 -1.24273 -0.0671897 43 44 44
-1.09711 -1.22465 -0.128477 57 53 46
-1.13906 -1.25823 -0.0218652 33 33 35
-0.985178 -1.27829 -0.110736 72 82 86
-1.01922 -1.24322 -0.149059 22 19 19
-1.10114 -1.20466 -0.107554 32 32 33
-1.12583 -1.20475 -0.0314557 47 43 41
-1.0573 -1.14398 -0.0891639 36 37 41
-1.04208 -1.22011 -0.123737 41 36 33
-1.06367 -1.24268 -0.0330158 49 48 46
-1.10611 -1.20694 -0.0487628 50 48 46
-1.08573 -1.2318 -0.0355467 24 27 28
-1.1609 -1.24395 -0.00704382 26 28 32
-1.12076 -1.26201 -0.0263941 21 21 27
-1.02423 -1.20707 -0.0703329 34 30 30
-1.17667 -1.19935 -0.0444715 39 39 40
-1.02805 -1.22614 -0.055818 22 18 20
-1.10109 -1.26433 -0.0274973 29 30 34
-1.17986 -1.24209 0.013101 24 30 36
-1.15441 -1.21954 0.0129824 20 25 31
-1.04335 -1.20913 -0.126294 57 52 49
-1.15643 -1.20264 0.0236839 20 28 32
-1.10283 -1.24537 0.00838188 49 53 55
-1.06071 -1.27573 -0.0274551 72 77 79
-1.05888 -1.2277 -0.0498783 50 47 44
-1.07736 -1.26091 -0.065637 45 43 42
-1.06289 -1.26629 -0.0281933 66 68 69
-1.15942 -1.22121 -0.0287773 37 37 38
-1.02382 -1.16673 -0.0711041 53 53 48
-1.13965 -1.22343 -0.0265864 42 41 41
-1.09831 -1.24089 -0.0856025 43 45 45
-1.02488 -1.18923 -0.0940632 42 37 35
-1.11467 -1.17491 -0.140135 23 21 22
-1.05935 -1.20259 -0.0683717 46 45 44
-1.0818 -1.22479 -0.109055 45 44 42
-1.17265 -1.19388 -0.0602798 48 46 43
-1.15591 -1.19975 -0.0826714 42 41 41
-1.02007 -1.24352 -0.0666896 49 45 42
-1.08173 -1.23828 -0.130226 75 69 62
-1.04217 -1.20822 -0.110871 44 39 35
-1.08997 -1.24852 0.00368764 16 18 24
-1.03976 -1.26028 -0.105643 64 57 51
-1.00339 -1.26321 -0.0701726 63 62 57
-0.999907 -1.24473 -0.0679899 59 57 54
-1.04603 -1.22848 -0.151925 22 19 18
-0.989203 -1.22407 -0.0893466 48 44 40
-1.04737 -1.27407 -0.0331415 64 61 56
-1.07915 -1.18096 -0.0678352 29 30 30
-0.964779 -1.24702 -0.0838725 67 74 74
-1.13635 -1.16926 -0.0449084 73 71 68
-1.16159 -1.24845 0.0119899 28 33 36
-1.06176 -1.24138 -0.0462614 35 35 34
-1.01997 -1.24407 -0.105714 53 47 43
-0.982554 -1.26383 -0.128176 32 29 29
-1.12141 -1.20214 -0.125852 38 38 38
-1.12002 -1.22097 -0.066065 36 35 34
-1.1318 -1.21938 -0.0992711 30 34 36
-0.982347 -1.26754 -0.0691862 72 73 70
-1.17578 -1.202 -0.0260042 19 24 28
-1.08065 -1.22402 -0.0673071 35 39 41
-1.04088 -1.20178 -0.0509631 24 22 22
-1.12126 -1.22375 -0.0300926 42 39 38
-1.01019 -1.1894 -0.10228 42 38 36
-1.13991 -1.18409 -0.0854505 43 41 39
-1.00347 -1.20688 -0.0912093 54 50 46
-1.15913 -1.20364 -0.0670391 43 41 39
-1.12206 -1.16669 -0.0901464 61 59 58
-1.04724 -1.14802 -0.0706441 54 54 54
-1.17348 -1.22508 -0.00773212 39 42 43
-1.0542 -1.16238 -0.101818 64 61 59
-1.04108 -1.20477 -0.0690992 38 34 33
-1.01969 -1.25762 -0.129611 28 23 22
-1.1236 -1.20628 -0.0667768 44 40 38
-1.15899 -1.21682 0.03357 30 37 42
-1.11901 -1.23877 -0.0264732 29 30 32
-1.06161 -1.20534 -0.0870865 38 35 33
-1.16506 -1.18458 -0.0474778 35 36 39
-1.15716 -1.22205 -0.00628095 25 29 33
-1.04656 -1.18754 -0.051489 56 49 45
-1.08765 -1.24996 -0.00900415 27 30 32
-1.00307 -1.24723 -0.0497221 66 69 66
-0.98259 -1.26664 -0.0871662 70 73 71
-1.1433 -1.20467 -0.00699487 47 48 47
-1.0996 -1.22345 -0.0663793 37 37 37
-1.02569 -1.17279 -0.108566 76 72 66
-1.09212 -1.25517 -0.083741 50 47 48
-1.0007 -1.26133 -0.106331 40 36 34
-1.04611 -1.27761 -0.0754728 72 65 64
-1.101 -1.16873 -0.143052 33 30 30
-1.04026 -1.18426 -0.0874984 35 33 32
-1.0014 -1.26262 -0.088374 61 58 54
-1.08329 -1.18685 -0.127751 38 37 37
-1.02095 -1.26388 -0.0871923 64 59 53
-1.15797 -1.25766 -0.00640537 34 34 37
-1.12134 -1.24192 0.0127301 30 32 34
-1.08123 -1.19141 -0.147813 49 45 40
-1.10091 -1.22287 -0.147455 55 51 46
-1.13753 -1.21733 -0.0854375 38 38 38
-1.05886 -1.20631 -0.0496519 35 35 34
-1.09904 -1.20283 -0.127032 34 33 32
-1.04234 -1.16409 -0.0860742 38 37 36
-1.04207 -1.24613 -0.0332174 56 50 46
-1.08028 -1.20074 -0.10707 40 42 40
-1.0392 -1.17872 -0.101849 33 30 27
-1.05932 -1.26235 -0.0661195 51 47 45
-1.10188 -1.18267 -0.144548 59 55 51
-1.10414 -1.16369 -0.129735 32 32 36
-1.16169 -1.18663 -0.00600734 21 25 30
-1.12457 -1.20096 -0.106883 31 32 35
-1.04587 -1.18416 -0.0686331 28 29 30
-1.02106 -1.26452 -0.0670962 54 52 49
-1.05867 -1.26088 -0.0796219 54 49 46
-1.04025 -1.26348 -0.0463953 66 65 64
-1.0379 -1.20163 -0.0844249 40 37 36
-1.06268 -1.24358 -0.0691287 41 38 37
-1.0837 -1.20504 -0.0882345 43 46 47
-1.06201 -1.22393 -0.067935 45 45 44
-1.06097 -1.26506 -0.0472948 55 52 50
-1.06035 -1.16305 -0.0870109 56 54 53
-1.10181 -1.18587 -0.107483 59 59 61
-1.10132 -1.20377 -0.0865765 46 44 44
-1.10458 -1.2056 -0.068317 47 45 44
-1.08063 -1.2623 -0.0265061 36 38 41
-1.11941 -1.16322 -0.108308 24 27 33
-1.11907 -1.18328 -0.0869834 56 52 51
-1.10105 -1.24216 -0.0475522 28 29 33
-1.12407 -1.15018 -0.108084 36 36 41
-1.13922 -1.16327 -0.107916 27 29 33
-1.12064 -1.22401 -0.0470663 43 40 39
-1.11967 -1.24282 -0.0460125 33 32 34
-1.13868 -1.14865 -0.101793 27 28 31
-1.14436 -1.16546 -0.0898183 50 47 48
-1.11807 -1.18263 -0.0653294 62 57 55
-1.13951 -1.24369 -0.0276824 30 30 32
-1.12007 -1.26649 -0.00705006 39 41 44
-1.15948 -1.18265 -0.06693 41 39 39
-1.13985 -1.20048 -0.0670394 43 41 38
-1.16259 -1.20368 -0.0484047 42 40 40
-1.15973 -1.24192 -0.0248306 19 20 25
-1.17861 -1.18519 -0.0662807 45 44 44
-1.17979 -1.18438 -0.0480375 33 34 35
-1.1221 -1.26198 0.0131424 48 52 54
-1.17597 -1.23903 -0.0220305 13 14 22
-1.1534 -1.21772 -0.0629479 33 30 30
-0.982282 -1.24459 -0.0675393 73 76 74
-0.984348 -1.24404 -0.0508766 82 87 85
-1.0417 -1.2443 -0.0897184 54 48 43
-1.02421 -1.16653 -0.0835965 52 52 49
-1.08043 -1.23682 -0.106778 51 49 46
-1.06173 -1.279 -0.0494258 67 69 70
-1.10002 -1.22522 -0.106016 46 47 47
-1.09195 -1.26758 -0.0634284 52 50 47
-1.08144 -1.27693 -0.0477308 53 52 49
-1.11754 -1.18223 -0.106275 42 41 45
-1.12132 -1.20128 -0.0873471 34 31 31
-1.1018 -1.26409 -0.0439231 31 34 37
-1.08417 -1.27794 -0.0292301 45 49 52
-1.1392 -1.1842 -0.107107 23 24 27
-1.12569 -1.23994 -0.0633151 46 43 41
-1.11944 -1.25819 -0.0454809 35 33 34
-1.09829 -1.27698 -0.0265797 44 47 50
-1.15439 -1.1819 -0.101503 44 45 46
-1.1422 -1.22084 -0.0683718 46 44 42
-1.13115 -1.2534 -0.0389125 33 34 38
-1.10168 -1.2611 -0.00759454 32 36 39
-1.17629 -1.24166 -0.00572016 23 27 33
-1.15843 -1.25922 0.0130651 31 34 38
-1.13839 -1.24232 0.0342581 37 41 45
-1.18149 -1.24115 0.0314026 32 40 43
-1.00818 -1.20904 -0.0723849 52 45 44
-1.04039 -1.16387 -0.105399 43 41 38
-1.04349 -1.14772 -0.0999702 58 54 52
-1.02121 -1.20303 -0.0456473 58 53 50
-1.05741 -1.14412 -0.105879 22 22 24
-1.06201 -1.18443 -0.0696762 36 37 38
-1.05749 -1.1831 -0.0484047 26 25 25
-1.02078 -1.26289 -0.103657 82 76 69
-1.0419 -1.22383 -0.106277 51 46 41
-1.08078 -1.22413 -0.127056 44 42 40
-1.0817 -1.20315 -0.126918 44 43 42
-1.07927 -1.26326 -0.0460942 41 41 40
-1.09562 -1.23743 -0.063176 41 43 43
-1.10162 -1.18249 -0.0658123 47 45 43
-1.10072 -1.22449 -0.048462 40 40 40
-1.12045 -1.17145 -0.0691054 87 84 80
-1.11952 -1.20245 -0.0458014 51 48 46
-1.13985 -1.18374 -0.0473942 49 48 48
-1.13991 -1.20219 -0.0285693 41 39 39
-1.14343 -1.18542 -0.029809 35 33 34
-1.14294 -1.22505 -0.00933338 32 34 35
-1.15889 -1.18568 -0.0257325 31 33 35
-1.14073 -1.24386 0.0105949 33 36 37
-1.15943 -1.20454 -0.00697532 25 30 34
-1.12534 -1.24202 0.0271877 38 40 43
-1.14106 -1.22372 0.0134124 20 25 28
-1.04175 -1.16057 -0.0670865 56 53 49
-0.979445 -1.24331 -0.0839535 74 71 68
-1.04097 -1.24398 -0.108754 55 49 44
-1.06216 -1.22454 -0.10534 45 41 37
-1.17835 -1.16411 -0.0470758 25 29 32
-1.17891 -1.16257 -0.0302325 32 33 35
-1.17529 -1.20052 -0.0111507 15 20 26
-1.12648 -1.22776 0.0265434 24 29 33
-1.17129 -1.1644 -0.010041 22 25 32
-1.04282 -1.14306 -0.0858234 30 31 33
-0.981171 -1.26471 -0.10748 48 48 49
-1.02441 -1.22164 -0.124818 36 32 30
-1.02074 -1.24511 -0.0878911 43 37 33
-1.06071 -1.20022 -0.123215 52 48 44
-1.08854 -1.17161 -0.140337 52 50 50
-1.04408 -1.22482 -0.0871582 66 58 52
-1.08511 -1.18824 -0.109249 75 74 72
-1.02082 -1.24209 -0.0480747 58 54 50
-1.04045 -1.24281 -0.0483886 44 41 40
-1.10253 -1.24504 -0.0110828 26 28 31
-1.14303 -1.19 0.0220637 28 38 37
-1.14214 -1.20083 0.0326132 25 32 36
-0.983544 -1.27522 -0.0917126 90 92 90
-1.08116 -1.19886 -0.147926 42 37 35
-1.11093 -1.19583 -0.141929 52 49 44
-1.09098 -1.23619 -0.118376 59 56 49
-1.09737 -1.23502 -0.110583 57 56 49
-1.13728 -1.20479 -0.105513 29 30 32
-1.15998 -1.22211 0.050749 33 41 43
-1.03761 -1.2363 -0.145497 23 20 20
-0.965493 -1.24055 -0.0654969 80 85 82
-1.11508 -1.21929 -0.12779 55 51 47
-1.03926 -1.15805 -0.119975 51 48 42
-1.04506 -1.146 -0.0570879 45 51 51
-1.0048 -1.23295 -0.100024 158 155 148
-1.02061 -1.27508 -0.0681455 65 68 67
-1.10261 -1.22373 -0.030182 40 38 36
-1.12934 -1.17248 -0.0554674 104 101 96
-1.11068 -1.20957 -0.0323544 49 47 44
-1.14563 -1.19274 -0.0158144 45 45 43
-1.12891 -1.22621 0.00498288 38 38 38
-1.01987 -1.182 -0.102448 57 53 49
-1.00651 -1.19958 -0.0989526 71 69 66
-0.999836 -1.22445 -0.0837202 52 46 41
-1.00389 -1.22697 -0.0715375 57 50 44
-1.06006 -1.1807 -0.0826319 47 45 42
-1.08769 -1.20611 -0.0521401 33 33 33
-1.10819 -1.18259 -0.0536234 71 69 67
-1.10497 -1.2609 0.00862521 20 23 29
-0.996234 -1.27835 -0.0910913 69 63 57
-1.02164 -1.22074 -0.0861629 32 26 24
-1.07753 -1.27523 -0.0114467 38 40 43
-1.12458 -1.25498 0.0313594 36 38 39
-0.983577 -1.27441 -0.0674267 75 69 65
-1.11251 -1.27866 -0.0236609 24 28 34
-1.15718 -1.26069 -0.0212576 24 27 27
-1.17892 -1.23334 0.00948367 21 27 34
-1.16816 -1.24963 0.0264059 28 37 40
-1.02924 -1.20925 -0.121698 28 24 22
-1.01894 -1.25771 -0.148532 26 22 21
-1.05959 -1.25336 -0.150902 26 22 22
-1.08109 -1.23876 -0.145184 31 25 22
-0.961087 -1.26567 -0.108186 62 67 70
-1.01851 -1.2433 -0.127402 24 20 20
-1.03375 -1.24374 -0.0635432 21 18 18
-0.981782 -1.27822 -0.127979 51 49 49
-0.997878 -1.27526 -0.105967 64 61 59
-1.06596 -1.24764 -0.14889 26 22 20
-0.998339 -1.26058 -0.146218 28 24 23
-0.969965 -1.27496 -0.105638 81 96 101
-0.994505 -1.2783 -0.118349 42 41 43
