ply
format ascii 1.0
comment Created by Open3D
element vertex 1164
property double x
property double y
property double z
property uchar red
property uchar green
property uchar blue
end_header
-0.800011 -0.643792 -0.108178 80 58 74
-0.779451 -0.642392 -0.0883853 107 94 104
-0.720454 -0.642191 -0.0477422 143 147 150
-0.580934 -0.642502 0.0527743 209 210 213
-0.115872 -0.721049 -0.226378 207 196 193
-0.500557 -0.722911 0.129494 145 139 135
-1.29943 -0.638181 0.0744753 181 184 193
-0.580301 -0.569926 -0.215632 212 209 202
-0.800292 -0.523325 -0.00633647 29 33 43
-1.34021 -0.602846 0.152075 174 183 200
-0.365091 -1.00289 0.067319 176 158 131
-0.900428 -0.640857 -0.166583 134 94 100
-0.761105 -0.404417 -0.251676 49 48 58
-1.12181 -0.65889 0.0706194 191 194 203
-0.480668 -0.581159 -0.3687 108 105 85
-0.398654 -0.566698 -0.482052 91 95 92
-0.922298 -0.5211 0.0137249 78 80 86
-0.779904 -0.642547 -0.304476 98 101 109
-0.681062 -0.642524 0.112978 172 134 135
-1.10792 -0.567231 -0.0594005 121 125 125
-0.588587 -0.728287 0.244888 101 122 124
-0.0870737 -0.944222 -0.228689 194 176 169
-0.0868596 -0.962789 -0.228761 192 174 167
-0.0869551 -0.982687 -0.228428 192 174 167
-0.960604 -0.561355 0.0544219 164 166 172
-0.0862115 -1.04351 -0.228156 189 171 162
-0.085906 -1.1238 -0.227487 187 168 158
-0.101722 -0.703731 -0.265693 184 176 167
-0.100419 -0.722852 -0.266794 190 181 171
-0.0836267 -0.662733 -0.263843 192 192 186
-0.117128 -0.76426 -0.291965 193 179 171
-0.576374 -0.588107 -0.445946 33 37 44
-0.0997087 -0.76334 -0.265811 192 181 171
-0.227578 -1.04312 -0.0527116 177 160 130
-0.10004 -0.743471 -0.246534 198 186 177
-0.0885045 -0.82338 -0.245801 173 162 153
-0.0872168 -0.842942 -0.22824 199 181 175
-0.0871083 -0.883288 -0.227516 194 178 170
-0.087087 -0.92318 -0.227683 192 175 168
-0.0882304 -1.02486 -0.211983 208 179 175
-0.0868193 -1.04399 -0.211438 206 177 173
-0.086415 -1.06399 -0.210698 201 173 168
-0.0848835 -1.08335 -0.207466 203 173 168
-0.600659 -0.443592 -0.326814 7 8 8
-0.101116 -0.723101 -0.246902 200 188 179
-0.0886834 -0.963879 -0.214771 205 180 176
-0.101599 -0.74358 -0.227858 193 181 173
-0.100937 -0.82337 -0.227018 185 172 163
-0.100516 -0.843257 -0.226874 192 179 170
-0.103448 -0.883215 -0.212268 193 177 171
-0.0908708 -0.898605 -0.215421 215 185 183
-0.104484 -0.843417 -0.211113 195 179 173
-0.104169 -0.863421 -0.211188 196 180 175
-0.104645 -0.96347 -0.21119 186 170 164
-0.103785 -0.982876 -0.21166 186 169 162
-0.103173 -1.06331 -0.210793 185 167 159
-0.102292 -1.0851 -0.192787 207 179 178
-0.10138 -1.10225 -0.190242 200 172 171
-0.103265 -0.802938 -0.20977 176 163 155
-0.106174 -1.06485 -0.192674 195 170 169
-0.119796 -0.682946 -0.246398 165 155 150
-0.11988 -0.703389 -0.227541 180 172 170
-0.102539 -0.782828 -0.208792 172 159 152
-0.107142 -1.02241 -0.195182 159 136 136
-0.10233 -0.762699 -0.208371 177 165 159
-0.12001 -0.72254 -0.206726 218 212 210
-0.416428 -1.06462 0.078826 183 166 139
-0.179673 -0.863315 -0.626783 137 146 126
-0.118849 -0.743249 -0.206315 203 195 191
-0.119334 -0.783372 -0.206898 170 159 152
-0.12014 -0.80352 -0.207458 169 158 150
-0.606626 -0.54398 -0.125951 175 112 102
-0.121569 -0.82383 -0.208203 180 169 161
-0.121008 -0.843722 -0.208557 193 181 174
-0.121169 -0.88306 -0.207951 194 183 176
-0.120856 -0.90284 -0.208159 192 182 175
-0.121219 -0.923073 -0.207889 190 179 173
-0.126196 -0.943818 -0.193864 203 186 182
-0.125566 -0.96507 -0.1935 203 185 181
-0.124893 -1.02208 -0.190723 200 180 175
-0.123543 -1.04265 -0.189417 202 181 174
-0.123341 -1.08214 -0.188313 195 174 164
-0.119691 -1.10457 -0.169432 181 159 143
-0.138955 -0.684204 -0.226148 178 172 170
-0.137711 -0.70019 -0.225683 179 169 156
-0.120146 -0.74324 -0.186072 194 186 180
-0.126293 -0.883072 -0.193263 204 189 184
-0.122008 -0.783014 -0.188611 170 157 148
-0.141819 -0.84312 -0.188252 199 187 180
-0.142264 -0.883419 -0.188541 198 187 181
-0.142202 -0.923787 -0.188947 196 184 179
-0.881353 -0.623973 -0.107312 220 216 224
-0.142161 -0.943728 -0.189052 192 181 176
-0.142412 -0.983404 -0.188558 194 182 177
-0.142936 -1.06252 -0.169079 204 178 176
-0.141521 -1.08286 -0.168212 202 176 173
-0.143746 -1.10277 -0.169523 197 173 168
-0.147671 -0.943074 -0.173255 206 187 187
-0.145817 -0.965857 -0.174408 201 184 182
-0.14851 -0.902437 -0.174726 205 188 185
-0.147234 -0.862491 -0.174424 205 191 186
-0.163122 -1.0425 -0.170043 195 180 175
-0.163341 -1.06345 -0.170884 196 181 175
-0.152678 -1.09453 -0.153948 195 168 165
-0.321506 -0.444442 -0.528141 33 35 39
-0.161244 -0.823438 -0.167276 195 183 175
-0.162698 -0.863266 -0.167983 200 188 183
-0.162736 -0.883166 -0.168696 199 187 183
-0.162805 -0.923818 -0.169575 200 187 183
-0.315116 -0.183046 -0.539548 74 72 76
-0.314784 -0.197999 -0.53854 68 65 71
-0.160839 -0.803847 -0.167099 178 167 157
-0.165726 -1.00327 -0.153225 213 188 188
-0.165991 -1.04432 -0.153256 212 186 184
-0.162781 -0.943734 -0.149619 204 182 175
-0.167523 -0.984373 -0.153199 218 194 196
-0.183828 -1.043 -0.150965 202 185 181
-0.183958 -1.06299 -0.151278 205 186 181
-0.160171 -0.742625 -0.146048 182 173 167
-0.161794 -0.762506 -0.148006 163 152 142
-0.181078 -0.883528 -0.166712 192 183 178
-0.182899 -0.902812 -0.150877 203 188 186
-0.183408 -0.943238 -0.1515 210 190 190
-0.184279 -1.00246 -0.151438 205 187 186
-0.338517 -0.281722 -0.521599 48 48 55
-0.159935 -0.702619 -0.146345 211 207 203
-0.180301 -1.08227 -0.127193 193 171 157
-0.180401 -0.7832 -0.145811 175 163 154
-0.76231 -0.504209 -0.270646 24 24 34
-0.205236 -1.04315 -0.131012 208 189 185
-0.204709 -1.06416 -0.131218 212 190 186
-0.203081 -1.08326 -0.129832 212 189 183
-0.178583 -0.921825 -0.124102 183 168 148
-0.178352 -0.942451 -0.124785 188 169 150
-0.205591 -0.983552 -0.132244 210 187 189
-0.180513 -0.742298 -0.12713 177 168 161
-0.204441 -0.924155 -0.13164 213 189 191
-0.201714 -0.803103 -0.148584 169 158 150
-0.201993 -0.823086 -0.14846 185 175 166
-0.520657 -0.343319 -0.449062 15 12 18
-0.200505 -1.08259 -0.105604 192 170 150
-0.380203 -0.660663 -0.447544 200 199 199
-0.180617 -0.703176 -0.126999 209 205 203
-0.200063 -0.783614 -0.126403 177 164 155
-0.199513 -1.06311 -0.104819 188 167 145
-0.201083 -0.823007 -0.128052 203 190 183
-1.18017 -0.623951 0.152778 190 194 207
-0.220604 -1.00271 -0.127221 207 189 189
-0.224518 -1.0223 -0.114031 207 187 185
-0.223885 -1.08091 -0.109461 215 190 183
-0.200725 -0.803521 -0.127004 192 180 172
-0.199134 -0.683165 -0.125254 148 146 145
-0.222261 -0.803445 -0.128336 175 164 156
-0.220951 -0.883793 -0.127813 198 186 182
-0.22109 -0.903392 -0.127758 200 186 184
-0.225508 -0.923902 -0.112979 214 192 194
-0.201411 -0.683941 -0.108067 189 185 185
-0.224929 -0.883048 -0.11258 205 190 188
-0.460274 -0.625907 -0.526036 118 121 115
-0.200804 -0.703118 -0.10735 207 201 199
-0.220329 -0.784892 -0.127068 172 160 153
-0.224362 -0.862959 -0.111588 205 191 187
-0.242352 -1.04283 -0.109746 203 188 182
-0.243157 -1.0772 -0.0940064 218 188 182
-0.298895 -0.792998 -0.0989503 142 134 125
-0.22056 -0.763132 -0.106698 172 160 153
-0.222693 -0.842242 -0.110149 201 188 182
-0.480892 -0.644545 -0.52734 143 147 142
-0.222121 -0.823473 -0.109515 200 187 180
-0.242058 -0.923142 -0.108257 207 191 190
-0.242229 -0.943358 -0.108584 210 193 192
-0.245017 -1.00081 -0.0945867 210 189 187
-0.219613 -0.682817 -0.106222 153 151 152
-0.241771 -0.863113 -0.108155 201 189 185
-0.241515 -0.883064 -0.108019 200 188 184
-0.246593 -0.96348 -0.0945041 213 194 195
-0.241961 -0.803603 -0.107533 185 173 167
-0.240724 -0.823307 -0.107472 197 185 179
-0.262955 -1.0435 -0.0906846 203 187 181
-0.262755 -1.02301 -0.0905356 202 187 182
-0.221253 -0.683705 -0.0874661 203 199 199
-0.242734 -0.842115 -0.0893227 192 181 174
-0.262545 -0.943687 -0.0892782 201 189 186
-0.261453 -1.06017 -0.0687633 197 171 161
-0.241418 -0.763756 -0.087702 172 160 152
-0.26239 -0.903596 -0.0889859 199 188 185
-0.262097 -0.923688 -0.0889402 199 188 184
-0.260983 -1.02333 -0.067866 208 184 174
-0.241827 -0.78353 -0.0879538 183 171 162
-0.242141 -0.803426 -0.088733 196 184 176
-0.261373 -0.842983 -0.0876547 191 181 176
-0.26125 -0.862933 -0.0885941 198 186 182
-0.262218 -0.883205 -0.0885155 200 189 185
-0.259783 -0.981281 -0.0664383 198 173 164
-0.261318 -1.00173 -0.0678251 203 180 171
-0.260848 -0.784424 -0.0878308 181 170 164
-0.261698 -0.823024 -0.0876057 191 181 175
-0.260632 -0.96052 -0.0669506 201 178 168
-0.2844 -1.06312 -0.0713248 204 185 178
-0.240088 -0.743535 -0.0861642 181 173 168
-0.264532 -0.903233 -0.0710938 201 186 179
-0.261727 -0.921167 -0.0678917 206 186 178
-0.726765 -0.364547 -0.254707 14 16 25
-0.283306 -0.982774 -0.0709845 205 192 188
-0.283951 -1.00296 -0.071125 205 190 186
-0.259585 -0.765417 -0.0862431 188 178 174
-0.263064 -0.822807 -0.0694842 195 184 176
-0.262723 -0.843022 -0.0693195 189 177 169
-0.282744 -0.902812 -0.06874 203 192 188
-0.262455 -0.803348 -0.0694999 209 200 193
-0.275919 -1.00386 -0.0441286 189 171 151
-0.279917 -1.02114 -0.0455847 199 178 162
-0.262295 -0.782958 -0.0689572 205 197 190
-0.281574 -0.823092 -0.0683155 214 205 202
-0.281872 -0.843085 -0.0682123 203 193 189
-0.30564 -1.02357 -0.0522328 167 155 152
-0.26093 -0.743092 -0.0667326 183 176 171
-0.281357 -0.803673 -0.067698 219 210 207
-0.279877 -0.903814 -0.0452112 198 179 164
-0.277942 -0.943635 -0.0433404 203 180 165
-0.303981 -0.983186 -0.0515062 173 160 157
-0.282045 -0.881957 -0.0484439 195 177 165
-0.303592 -0.922313 -0.0501099 179 167 163
-0.282498 -0.86181 -0.048829 194 181 170
-0.302916 -0.902044 -0.0498375 170 159 155
-0.302207 -0.882777 -0.0486068 173 162 158
-0.321713 -1.02291 -0.0475467 194 184 179
-0.280721 -0.764793 -0.0664071 182 173 168
-0.282594 -0.783748 -0.0497305 177 167 157
-0.282899 -0.803431 -0.0506409 192 181 172
-0.301213 -0.823386 -0.0475121 167 158 154
-0.30163 -0.843343 -0.0478306 170 161 157
-0.325869 -1.02451 -0.0313643 210 193 190
-0.30157 -0.78518 -0.0678108 160 153 146
-0.321304 -0.963207 -0.0472205 190 179 174
-0.325029 -0.982953 -0.0327866 208 194 190
-0.320992 -0.90379 -0.0470561 183 174 169
-0.324513 -0.962848 -0.0321709 206 192 187
-0.322112 -0.883071 -0.0301738 195 183 178
-0.342114 -1.02321 -0.0286139 204 193 187
-0.303932 -0.823401 -0.0295971 190 178 164
-0.341013 -0.961849 -0.0284066 199 188 182
-0.341593 -0.982132 -0.0287257 201 189 183
-0.345954 -1.02136 -0.0132162 211 191 189
-0.303308 -0.783676 -0.0298147 195 184 172
-0.297476 -0.185369 -0.580739 98 107 100
-0.322155 -0.803199 -0.0278327 208 197 191
-0.542794 -0.583484 -0.365988 172 175 185
-0.320556 -0.78324 -0.0276553 201 190 184
-0.341382 -0.903192 -0.0278734 196 185 179
-0.341154 -0.92307 -0.0280265 194 183 177
-0.345569 -0.963479 -0.0135113 206 190 186
-0.341469 -0.882696 -0.028327 198 188 182
-0.344828 -0.922937 -0.0124732 206 190 185
-0.560719 -0.582818 -0.347512 185 187 198
-0.320181 -0.742465 -0.026824 185 178 173
-1.37487 -0.519664 0.134881 38 40 46
-0.480146 -1.08356 0.0742611 185 176 168
-0.343121 -0.882841 -0.011656 193 179 174
-0.34275 -0.843373 -0.0095135 205 194 189
-0.342864 -0.863766 -0.0096599 197 185 179
-0.560448 -0.582601 -0.326711 190 192 201
-1.20179 -0.683804 0.0906332 206 212 219
-0.341967 -0.783957 -0.0285823 186 177 169
-0.341091 -0.7831 -0.00735561 199 188 180
-0.341909 -0.803379 -0.00843185 206 195 188
-0.362116 -0.902731 -0.0086313 195 183 177
-0.367264 -0.943777 0.00674229 209 191 187
-0.365617 -0.963153 0.00705195 207 189 185
-0.383262 -1.00334 0.0101927 197 184 180
-0.583184 -0.463736 -0.372348 40 40 50
-0.36157 -0.863188 -0.00894818 202 191 185
-0.3658 -0.904094 0.00753374 209 192 187
-0.364141 -0.882407 0.00807622 194 179 174
-0.361868 -0.822273 0.0109197 203 191 185
-0.382204 -1.00181 0.0309281 205 188 177
-0.38181 -0.882509 0.0106328 191 181 175
-0.403706 -1.00238 0.0291132 202 190 186
-0.385087 -0.943587 0.0306417 214 198 193
-0.381893 -0.843363 0.0114538 196 185 179
-0.382265 -0.822889 0.0113726 199 188 182
-0.700239 -0.735713 0.210343 29 35 40
-0.384629 -0.862307 0.0289656 191 178 171
-0.382697 -0.822278 0.0309897 195 183 176
-0.940701 -0.664434 0.133407 180 185 184
-0.320727 -0.658526 -0.107769 220 218 215
-0.38213 -0.803262 0.0109607 201 191 183
-0.382443 -0.80284 0.0315034 209 200 194
-0.402521 -0.904065 0.0303858 203 191 186
-0.399982 -0.982629 0.0536413 193 176 160
-0.381549 -0.783101 0.0313919 218 210 204
-0.400228 -0.960608 0.0523944 204 185 178
-0.401995 -0.842608 0.0312943 191 183 177
-0.401292 -0.942053 0.0490076 202 184 176
-0.422239 -0.942515 0.0511389 198 182 176
-0.401654 -0.823208 0.0317968 214 207 203
-0.42261 -0.923693 0.0499776 199 183 178
-0.662452 -0.463848 -0.330945 13 16 25
-0.401801 -0.803203 0.0315273 231 225 221
-0.642318 -0.303492 -0.352068 3 3 9
-0.403504 -0.82273 0.0502388 200 187 180
-0.422724 -0.864144 0.0504137 189 178 172
-0.401918 -0.782832 0.0514178 215 204 197
-0.418023 -0.943955 0.0761186 198 182 159
-0.422394 -0.843706 0.0510277 196 187 181
-0.418852 -0.924011 0.0758987 199 182 159
-0.442688 -0.943212 0.0699865 204 186 182
-0.422174 -0.823428 0.0516516 201 194 188
-0.421105 -0.803212 0.0530921 203 194 188
-0.421164 -0.862781 0.0732114 178 162 146
-0.442337 -0.882607 0.0702392 188 174 169
-0.440151 -0.943511 0.0952921 211 196 175
-0.421055 -0.763866 0.052305 188 180 173
-0.462197 -0.942383 0.0905274 199 181 179
-0.402682 -0.64432 0.0501257 184 181 184
-0.421409 -0.743312 0.0533135 171 163 157
-0.462214 -0.923145 0.0903381 199 181 178
-0.44168 -0.823551 0.0719338 194 184 177
-0.438979 -0.883199 0.0957765 176 160 136
-0.441189 -0.843023 0.0938539 175 159 142
-0.462682 -0.863714 0.0910714 191 178 173
-0.742491 -0.463546 -0.291936 11 10 19
-0.44172 -0.822925 0.0926663 181 166 152
-0.441316 -0.763014 0.0720552 188 179 172
-0.480123 -0.943141 0.110432 187 171 164
-0.442252 -0.743157 0.0714935 167 158 151
-0.424395 -0.645458 0.0688443 156 152 153
-0.461811 -0.803196 0.0913915 197 189 183
-0.481581 -0.90211 0.111658 188 170 166
-0.461127 -0.863908 0.11337 165 150 133
-0.621058 -0.642319 0.0528671 211 211 210
-0.421988 -0.683083 0.0920682 178 169 161
-0.422013 -0.702202 0.0920428 175 166 155
-0.461254 -0.782985 0.0914416 199 191 185
-0.482568 -0.862947 0.111006 184 170 165
-0.46084 -0.763473 0.091588 192 184 178
-0.459933 -0.822868 0.111755 185 168 155
-0.502671 -0.923496 0.11194 177 164 159
-0.760382 -0.0826956 -0.364483 23 26 28
-0.460696 -0.783283 0.11021 192 174 168
-0.482018 -0.823194 0.111576 186 176 170
-0.502011 -0.90311 0.111132 177 165 160
-0.503503 -0.922264 0.125471 143 126 123
-0.44412 -0.64798 0.086687 160 155 157
-0.501262 -0.882946 0.111382 176 163 159
-0.86087 -0.583386 0.112856 72 74 81
-0.501785 -0.944657 0.128323 158 138 127
-0.763522 -0.302829 -0.291591 16 16 22
-0.482645 -0.803597 0.111808 185 177 171
-0.516226 -0.923287 0.126436 163 153 148
-0.745002 -0.183867 -0.313783 33 32 35
-0.761065 -0.640459 -0.166442 165 156 159
-0.482109 -0.782694 0.111466 186 177 172
-0.538084 -0.962754 0.112969 165 157 150
-0.554811 -0.967841 0.111809 126 114 112
-0.539934 -0.975965 0.124482 151 135 128
-0.485676 -0.8227 0.126607 149 136 135
-0.555278 -0.94575 0.110655 174 160 155
-0.442332 -0.682686 0.110252 183 177 173
-0.500939 -0.822102 0.129704 155 148 143
-0.799835 -0.0803612 -0.36313 22 25 27
-0.780832 -0.640908 -0.167173 130 127 131
-0.444128 -0.666203 0.109459 197 191 189
-0.500887 -0.804483 0.127758 152 146 142
-0.556523 -0.902439 0.110278 138 125 123
-0.839489 -0.624439 -0.188565 134 96 102
-0.463633 -0.65059 0.109377 208 194 197
-0.500733 -0.783075 0.129107 160 154 151
-0.803233 -0.303377 -0.27225 28 28 33
-0.560554 -0.847287 0.108445 117 120 121
-0.481594 -0.626381 0.0917878 184 177 178
-0.481965 -0.644606 0.110061 150 144 145
-0.537835 -0.783728 0.112208 157 152 147
-0.480698 -0.682682 0.129443 164 159 155
-0.716964 -0.365714 -0.383664 3 3 9
-0.481831 -0.664823 0.129833 180 177 174
-0.499392 -0.723613 0.112754 176 168 165
-0.881357 -0.627609 -0.168051 134 74 81
-0.540891 -0.62187 0.0729915 223 222 225
-0.840687 -0.56241 -0.22815 115 115 117
-0.498957 -0.68394 0.130933 157 153 149
-0.920995 -0.603094 -0.18882 157 151 154
-0.740016 -0.0254585 -0.325705 66 71 67
-0.860662 -0.62006 -0.147251 122 79 88
-0.819633 -0.643525 -0.107974 66 53 65
-0.700536 -0.642461 -0.0271051 156 168 164
-0.560605 -0.642268 0.0726115 217 219 222
-0.520139 -0.704068 0.113203 126 121 117
-0.420939 -0.963028 -0.00720262 222 212 205
-0.343067 -1.11781 -0.014921 204 178 178
-0.61467 -0.822417 0.0758677 40 37 35
-0.29969 -0.803665 -0.0864626 181 175 167
-0.480851 -0.621605 0.0528665 213 213 215
-0.804219 -0.28406 -0.273011 35 34 39
-0.341609 -0.823346 -0.028091 205 195 188
-0.183951 -0.624011 -0.654081 154 165 141
-0.621141 -0.65764 -0.284286 185 185 190
-0.960007 -0.563398 0.0742455 170 171 175
-0.098827 -0.843534 -0.266181 180 169 159
-0.0983641 -0.842812 -0.246187 185 173 163
-0.0887065 -0.844558 -0.246607 166 155 146
-0.0881909 -0.88354 -0.246219 171 158 149
-0.0882255 -0.903796 -0.248119 165 154 144
-0.10033 -0.963474 -0.226611 189 174 165
-0.139803 -0.680009 -0.307978 241 234 235
-0.100665 -0.943182 -0.226858 188 174 165
-0.102161 -1.12408 -0.210256 184 166 156
-0.298335 -0.697149 -0.566903 209 199 200
-0.121504 -0.982736 -0.207577 186 175 168
-0.599577 -0.543083 -0.306573 33 33 32
-0.121572 -1.02278 -0.207525 184 173 166
-0.125352 -1.12278 -0.192698 194 176 167
-0.124906 -1.14484 -0.192884 193 175 165
-0.801364 -0.466591 -0.0267907 91 93 97
-0.299736 -0.681612 -0.546355 221 211 213
-0.30118 -0.403345 -0.546038 36 41 46
-0.141879 -1.14334 -0.189617 188 173 163
-0.240902 -0.681784 -0.407049 228 218 216
-0.140113 -0.823201 -0.206316 167 158 148
-0.142341 -1.04306 -0.189283 188 176 170
-0.142387 -1.06328 -0.189463 190 177 169
-0.142252 -1.08397 -0.189869 187 174 166
-0.28068 -0.681159 -0.466769 233 224 226
-0.106709 -0.683109 -0.152062 199 193 189
-0.341574 -0.623993 -0.567858 118 120 108
-0.341951 -0.608143 -0.565713 99 99 88
-0.524468 -0.165588 -0.374754 4 5 5
-0.160328 -0.843465 -0.186502 189 180 170
-0.159973 -0.883571 -0.186228 189 182 174
-0.159876 -0.903281 -0.185725 187 180 173
-0.159929 -0.922888 -0.186004 186 179 173
-0.360118 -0.624557 -0.565551 114 115 101
-0.141854 -0.782635 -0.168275 173 159 148
-0.123348 -0.679731 -0.130441 189 184 181
-0.185472 -1.103 -0.152322 200 182 174
-0.183844 -1.12147 -0.153051 195 178 169
-0.380324 -0.624271 -0.545817 116 116 103
-0.180224 -0.923181 -0.166695 188 179 175
-0.180218 -0.943163 -0.166284 195 184 181
-0.179331 -0.963423 -0.165821 193 181 178
-0.179842 -0.982559 -0.166137 201 188 185
-0.201319 -1.08267 -0.146981 195 183 175
-0.201141 -1.10308 -0.147256 195 182 173
-0.20076 -0.943541 -0.146281 204 187 186
-0.19978 -0.962848 -0.146348 205 185 186
-0.200512 -1.04351 -0.146406 194 182 177
-0.205148 -1.10291 -0.133156 207 188 180
-0.198164 -0.823571 -0.163844 170 162 152
-0.162854 -0.664688 -0.109194 205 199 198
-0.182164 -0.763349 -0.130559 162 149 139
-0.222501 -1.10324 -0.128885 199 185 174
-0.218674 -0.924399 -0.144359 188 180 176
-0.221517 -1.02293 -0.127389 202 186 184
-0.221925 -1.06285 -0.128753 199 186 180
-0.218331 -0.882671 -0.145225 191 184 177
-0.220815 -0.923178 -0.128205 204 187 187
-0.220847 -0.983107 -0.127422 205 185 186
-0.226154 -1.10208 -0.114831 208 188 179
-0.219008 -0.803632 -0.144788 148 141 131
-0.243554 -1.08328 -0.110078 204 188 178
-0.243403 -1.10323 -0.110929 203 187 175
-0.217302 -0.763774 -0.123121 175 166 161
-0.859934 -0.599984 0.115665 112 114 121
-0.238711 -0.922804 -0.125326 191 182 178
-0.239984 -0.822915 -0.125125 179 171 163
-0.24792 -1.10435 -0.096714 212 184 179
-0.43786 -0.566331 -0.460693 86 91 88
-0.355359 -0.302443 -0.537463 57 55 64
-0.461001 -0.603371 -0.485384 100 106 99
-0.219844 -0.742939 -0.105516 187 180 176
-0.259563 -0.883533 -0.106534 195 187 181
-0.259994 -0.94372 -0.10579 195 185 182
-0.259781 -0.862899 -0.106405 189 181 174
-0.280656 -1.12284 -0.087586 191 177 166
-0.424808 -0.383471 -0.453456 16 20 26
-0.259809 -0.823723 -0.106216 188 180 172
-0.280948 -1.10289 -0.0866064 194 180 170
-0.259859 -0.804491 -0.10614 167 159 149
-0.279998 -1.02378 -0.0864367 193 184 178
-0.283592 -1.10322 -0.0711253 206 188 182
-0.643293 -0.56769 0.0500836 163 164 170
-0.28007 -0.944187 -0.0860808 196 188 183
-0.280275 -0.984355 -0.0864282 195 187 181
-0.300842 -1.14281 -0.0679425 210 198 192
-0.660632 -0.483891 -0.310158 11 13 20
-0.278578 -0.863967 -0.102158 167 161 153
-0.280487 -0.882856 -0.0867345 192 184 179
-0.301175 -1.12377 -0.0675569 199 186 179
-0.279566 -0.843569 -0.0864049 207 201 196
-0.30035 -1.08326 -0.0674528 190 177 168
-0.280032 -0.823028 -0.0863621 219 214 210
-0.300852 -1.04378 -0.0671817 191 179 173
-0.301182 -1.06324 -0.0679735 190 178 171
-0.300878 -0.963567 -0.0672927 194 185 181
-0.30103 -1.00366 -0.0667401 194 185 180
-0.30527 -1.08167 -0.0530047 163 149 145
-0.465301 -0.384223 -0.43395 15 18 24
-0.279927 -0.785792 -0.0864764 164 158 150
-0.299827 -0.883043 -0.0854237 199 191 184
-0.299963 -0.902991 -0.0853968 202 193 186
-0.304903 -1.06278 -0.0517678 160 148 142
-0.322327 -1.12405 -0.0492786 192 178 170
-0.300882 -0.883613 -0.0669351 194 185 180
-0.300607 -0.843321 -0.0663966 196 188 183
-0.300954 -0.863585 -0.0668154 191 182 177
-0.320793 -1.04338 -0.0478818 192 181 175
-0.321155 -1.00266 -0.0475062 190 180 175
-0.278535 -0.743938 -0.0647561 188 181 176
-0.301492 -0.803151 -0.0675065 178 171 165
-0.327436 -1.12265 -0.0340018 199 180 172
-0.325757 -1.06214 -0.032773 207 188 181
-0.342528 -1.12299 -0.0300743 193 177 167
-0.504901 -0.402955 -0.413545 24 26 32
-0.577549 -0.605421 -0.446294 46 51 59
-0.342002 -1.06339 -0.0298301 209 197 190
-0.342441 -1.0834 -0.029454 203 189 181
-0.505615 -0.383656 -0.413904 15 17 24
-0.445609 -0.620972 0.087477 72 68 69
-0.34038 -0.963366 -0.0461545 199 190 181
-0.360011 -1.12334 -0.0261848 197 183 172
-0.321158 -0.803448 -0.0480792 173 166 160
-0.321197 -0.78419 -0.0478898 165 157 152
-0.359905 -1.00235 -0.026764 197 188 182
-0.360026 -1.02371 -0.0264 198 190 182
-0.359652 -1.04382 -0.0269426 197 189 181
-0.380879 -1.12345 -0.00715784 196 183 171
-0.742671 -0.444352 -0.351263 1 3 5
-0.30026 -0.702922 -0.0266355 186 180 176
-0.360546 -0.94302 -0.026626 198 189 179
-0.54571 -0.363749 -0.394201 4 4 11
-0.359649 -0.902932 -0.0260474 190 182 175
-0.380143 -1.04318 -0.00649047 200 191 184
-0.579305 -0.479711 -0.404637 38 38 48
-0.384069 -1.08286 0.00869133 207 193 187
-0.359747 -0.883001 -0.0253311 202 195 187
-0.380004 -1.00365 -0.00649626 196 186 179
-0.618041 -0.582404 -0.382539 74 76 88
-0.4007 -1.10346 0.0128263 208 200 192
-0.379753 -0.923087 -0.00529059 191 182 175
-0.379346 -0.902854 -0.00559568 187 178 171
-0.400392 -1.02317 0.0131119 184 175 169
-0.584187 -0.403054 -0.372403 21 21 29
-0.379579 -0.882744 -0.0058426 200 192 184
-0.3612 -0.763585 -0.00646577 171 162 154
-0.379208 -0.862983 -0.00577047 201 193 186
-0.400049 -0.963587 0.0137608 215 207 201
-0.400126 -0.983254 0.0137587 203 194 187
-0.399993 -0.943206 0.0133517 214 207 200
-0.379566 -0.823305 -0.00612896 205 196 188
-0.404078 -1.02385 0.0283414 200 189 184
-0.600513 -0.102106 -0.446854 53 59 64
-0.358915 -0.74336 -0.00552468 168 158 151
-0.400066 -0.903546 0.0140806 194 185 180
-0.421 -1.00322 0.0323877 206 197 192
-0.420745 -1.02339 0.0325158 193 184 178
-0.42078 -1.04276 0.0329027 197 188 182
-0.138563 -0.844568 -0.223677 173 166 155
-0.381531 -0.763572 0.0122499 182 173 166
-0.399344 -0.863543 0.0141959 180 170 163
-0.579409 -0.502604 -0.347003 31 31 37
-0.421112 -0.963387 0.0333282 214 205 199
-0.420787 -0.983227 0.0335437 215 207 201
-0.438763 -1.08354 0.0348748 188 180 172
-0.399043 -0.843157 0.0143752 195 187 180
-0.420707 -0.923467 0.0328453 198 188 181
-0.420632 -0.943119 0.0328533 207 198 192
-0.424853 -1.04259 0.0468564 193 179 174
-0.425865 -1.06282 0.0463561 191 173 169
-0.441954 -1.0634 0.0516937 195 184 178
-0.441404 -1.08362 0.0514627 189 175 169
-0.44231 -1.12278 0.0507763 179 166 159
-0.602947 -0.263912 -0.372304 3 4 8
-0.399078 -0.82329 0.0144181 207 200 193
-0.42031 -0.903553 0.0333589 186 175 169
-0.698906 -0.62275 -0.343488 62 66 77
-0.69035 -0.200286 -0.31657 8 7 9
-0.420377 -0.883501 0.0334801 188 178 172
-0.438292 -1.00397 0.0362264 193 187 178
-0.441122 -1.02376 0.0520164 192 181 175
-0.441221 -0.982696 0.0512529 189 178 170
-0.42019 -0.863157 0.0340016 190 182 176
-0.43823 -0.943018 0.0367675 192 185 175
-0.438615 -0.962753 0.0365929 190 184 174
-0.719712 -0.623723 -0.324479 90 97 110
-0.71993 -0.64217 -0.324731 119 123 133
-0.438581 -0.923018 0.0359265 187 181 171
-0.462957 -1.10277 0.0701143 186 174 166
-0.102945 -0.782163 -0.30995 170 163 153
-0.663152 -0.444163 -0.332166 8 12 21
-0.419614 -0.823473 0.0346898 221 215 211
-0.441421 -0.923893 0.0517043 192 181 173
-0.900955 -0.602545 -0.107869 94 97 107
-0.461975 -1.06319 0.0710046 193 180 174
-0.623891 -0.163758 -0.37252 16 17 22
-0.420094 -0.802911 0.0342456 225 219 214
-0.462215 -1.02293 0.0712433 193 182 175
-0.663065 -0.403408 -0.331546 5 8 16
-0.399722 -0.722263 0.0344346 179 173 168
-0.41981 -0.783168 0.0334542 208 201 195
-0.479631 -1.06362 0.0747919 193 183 177
-0.7386 -0.603489 -0.322646 79 85 99
-0.458109 -0.943548 0.0548976 191 183 174
-0.462413 -0.984398 0.0712892 194 183 176
-0.44104 -0.84363 0.0529878 193 183 176
-0.482712 -1.10257 0.0909884 180 167 160
-0.419267 -0.743966 0.0341627 168 159 152
-0.461954 -0.943519 0.0710052 194 183 175
-0.482569 -1.06364 0.0910504 188 174 168
-0.482077 -1.08353 0.0912746 183 170 163
-0.500742 -1.08329 0.0934263 181 168 162
-0.702544 -0.463134 -0.310718 9 10 19
-0.479198 -0.982936 0.0742719 192 184 176
-0.482547 -1.04263 0.0905695 189 177 170
-0.702894 -0.443391 -0.311508 6 9 17
-0.458787 -0.864283 0.0557854 192 185 176
-0.461453 -0.884015 0.0710763 185 174 167
-0.779272 -0.603773 -0.305326 81 87 100
-0.4204 -0.723153 0.0540344 184 178 173
-0.594614 -0.434538 -0.458573 6 8 16
-0.461162 -0.84372 0.0718925 195 185 179
-0.460931 -0.863826 0.0718265 191 181 174
-0.478621 -0.943053 0.0747525 192 183 175
-0.502076 -1.12384 0.110618 174 159 152
-0.520951 -1.12281 0.11218 170 156 148
-0.521463 -1.14285 0.11219 170 154 147
-0.663244 -0.16377 -0.353157 16 17 24
-0.421159 -0.70343 0.0522814 187 180 178
-0.460972 -0.82396 0.0723726 199 189 183
-0.479023 -0.922658 0.0747385 190 182 174
-0.521211 -1.1036 0.111509 170 156 149
-0.799723 -0.622599 -0.30508 59 61 65
-0.798758 -0.642599 -0.304385 65 62 58
-0.439065 -0.743376 0.055461 170 162 155
-0.780937 -0.595984 0.000628877 48 50 59
-0.478833 -0.90323 0.0745596 186 178 171
-0.482301 -0.943644 0.0907399 186 175 168
-0.503206 -1.06376 0.111158 179 162 157
-0.799686 -0.603124 -0.307197 68 71 80
-0.460985 -0.803172 0.0721833 201 192 186
-0.481088 -0.822998 0.0330414 209 198 189
-0.478212 -0.863969 0.0753151 195 188 181
-0.478751 -0.884009 0.0749538 188 180 173
-0.601575 -0.643328 0.171345 157 151 149
-0.481895 -0.923057 0.090985 183 173 166
-0.503782 -1.04218 0.109323 175 160 154
-0.461055 -0.783361 0.0722308 201 191 185
-0.499508 -0.94359 0.0947322 182 171 165
-0.504609 -1.02341 0.109753 176 160 155
-0.480525 -0.657265 0.0123163 209 210 209
-0.482613 -0.88368 0.0907519 180 170 164
-0.499179 -0.923588 0.0942215 184 173 167
-0.503345 -1.00374 0.109848 180 164 159
-0.53973 -1.12346 0.112377 171 160 150
-0.761489 -0.562691 -0.346577 12 14 20
-0.743181 -0.442854 -0.291766 6 10 18
-0.481705 -0.863965 0.0917163 190 181 175
-0.499069 -0.903976 0.0936679 179 170 164
-0.50361 -0.983648 0.109928 180 164 159
-0.520266 -1.00387 0.112768 170 157 151
-0.538012 -1.08333 0.113512 168 157 148
-0.478029 -0.804064 0.0758125 198 193 186
-0.519765 -0.983141 0.112432 171 158 151
-0.477345 -0.784015 0.0771854 192 187 179
-0.480916 -0.823688 0.0922645 197 188 183
-0.502427 -0.94326 0.111229 177 163 158
-0.53763 -1.04297 0.1119 169 158 150
-0.556463 -1.08077 0.111247 167 153 146
-0.459126 -0.72322 0.0748823 197 192 188
-0.480843 -0.782841 0.0928444 198 188 183
-0.840852 -0.622966 -0.267978 68 72 79
-0.460181 -0.70266 0.0744053 207 203 202
-0.480389 -0.763345 0.0932697 188 179 173
-0.499229 -0.842901 0.0943939 191 183 177
-0.499668 -0.823592 0.0946893 190 183 177
-0.520374 -0.903571 0.112806 158 148 143
-0.538009 -0.983318 0.11323 156 146 140
-0.378087 -0.923426 -0.042207 180 168 160
-0.498979 -0.803582 0.0945078 190 183 177
-0.501697 -0.862771 0.111126 179 168 163
-0.479922 -0.722976 0.0943056 192 185 181
-0.501605 -0.843122 0.11157 174 164 160
-0.88108 -0.66323 -0.247936 160 159 156
-0.498856 -0.783284 0.0949385 183 177 170
-0.50099 -0.822872 0.111397 178 167 164
-0.538355 -0.923897 0.113626 159 150 145
-0.398802 -0.441727 -0.502387 22 24 31
-0.480704 -0.702912 0.0927398 205 200 197
-0.498277 -0.76262 0.0969128 172 166 160
-0.480648 -0.683919 0.0933798 193 186 187
-0.500653 -0.782834 0.112383 175 166 162
-0.30033 -0.629027 -0.207289 238 242 244
-0.519092 -0.822821 0.113176 152 147 145
-0.822005 -0.483664 -0.250368 20 22 31
-0.499518 -0.76324 0.113511 173 165 160
-0.519378 -0.803369 0.113598 147 142 139
-0.680318 -0.62454 -0.0685147 188 170 177
-0.519466 -0.783516 0.114136 141 134 130
-0.536886 -0.841874 0.113014 147 143 141
-0.51947 -0.742573 0.113489 147 142 139
-0.721158 -0.627118 -0.0681116 132 102 120
-0.540481 -0.762638 0.112272 134 131 128
-0.780881 -0.624147 -0.107569 68 61 70
-0.76073 -0.62705 -0.0870327 102 88 100
-0.801957 -0.604436 -0.108878 103 84 91
-0.600708 -0.641784 0.0527883 208 207 206
-0.538942 -0.702717 0.111676 107 103 96
-0.461191 -0.625651 0.0726519 196 190 191
-0.840486 -0.183217 -0.286655 30 34 34
-0.799538 -0.623391 -0.0877818 90 80 89
-0.641167 -0.642121 0.0328085 217 219 219
-0.580924 -0.642641 0.0724688 216 217 217
-0.841092 -0.605615 -0.127464 103 59 67
-0.818891 -0.589639 -0.108717 155 129 139
-0.760129 -0.644007 -0.0489439 107 117 115
-0.699449 -0.643242 -0.00848614 176 187 185
-0.539978 -0.660985 0.112888 155 150 149
-0.625241 -0.764504 0.090974 32 30 30
-0.132953 -0.738482 -0.292164 171 163 158
-1.16102 -0.666777 0.173804 214 218 227
-0.601934 -0.727775 0.149053 59 58 56
-0.779812 -0.59525 0.00983487 45 49 59
-0.295178 -0.503261 -0.643743 145 160 132
-0.482843 -0.983328 0.110833 186 171 165
-0.70181 -0.507532 0.00813804 33 36 46
-0.802497 -0.104413 -0.292855 20 24 26
-0.601957 -0.102836 -0.367506 9 9 10
-0.602542 -0.843533 0.0914076 48 47 47
-0.0967867 -0.803795 -0.26583 176 166 157
-0.643953 -0.0261094 -0.368647 121 131 118
-0.0869434 -0.981602 -0.247231 161 150 139
-0.0861187 -1.00334 -0.247695 162 150 140
-0.0849004 -1.04289 -0.246343 159 146 135
-0.100678 -1.02347 -0.226868 185 171 161
-0.17874 -0.715386 -0.39691 241 230 234
-0.820075 -0.581576 0.0537586 41 46 58
-0.114152 -0.741438 -0.225825 186 172 167
-0.882707 -0.46976 0.0661687 85 87 94
-0.119597 -0.863381 -0.22556 187 179 170
-0.901035 -0.676181 -0.162377 57 59 67
-0.121508 -1.08328 -0.206998 180 168 160
-0.120766 -1.12362 -0.207268 185 173 163
-0.121101 -1.1425 -0.207496 184 172 162
-0.317714 -0.663022 -0.607259 148 148 140
-0.314737 -0.682151 -0.610294 161 157 153
-0.322432 -0.696362 -0.606925 206 196 195
-0.31448 -0.674884 -0.582261 220 209 209
-0.13554 -0.719448 -0.203415 213 203 196
-0.13918 -0.943905 -0.205269 183 177 169
-0.139272 -0.983104 -0.205158 181 174 166
-0.135045 -0.741876 -0.202051 221 203 206
-0.139383 -0.761485 -0.185652 185 177 171
-0.280713 -0.680985 -0.446718 226 217 217
-0.138259 -0.742291 -0.185067 198 189 184
-0.320942 -0.463466 -0.528809 31 34 39
-0.260392 -0.680239 -0.387349 228 219 217
-0.159359 -0.983669 -0.18598 185 177 171
-0.543567 -0.449136 -0.45049 12 14 22
-0.157386 -0.700232 -0.203189 115 109 101
-0.1407 -0.703648 -0.187093 202 194 188
-0.300153 -0.679608 -0.427631 213 204 202
-0.500594 -0.601254 0.114061 220 212 214
-0.157662 -0.720802 -0.182805 220 208 208
-0.158837 -0.787542 -0.186784 148 139 130
-0.860646 -0.659133 -0.0646685 238 234 245
-0.159683 -0.762851 -0.167003 180 172 167
-0.580832 -0.6101 0.132391 207 205 203
-0.158929 -0.743502 -0.165361 193 185 182
-0.179525 -1.00259 -0.166091 194 182 179
-0.179688 -1.06266 -0.165703 193 182 175
-0.180763 -0.657191 -0.207161 209 208 207
-0.180689 -0.658187 -0.187064 202 197 197
-0.359119 -0.679684 -0.469155 197 189 178
-0.174382 -0.741802 -0.161951 209 192 193
-0.179917 -0.723177 -0.146344 202 197 194
-0.340838 -0.660036 -0.387203 205 204 204
-0.641414 -0.606431 -0.0269793 203 199 199
-0.199712 -0.685371 -0.165836 117 111 103
-0.198036 -0.720391 -0.144136 212 199 198
-0.481304 -0.0292565 -0.43367 157 172 152
-0.195255 -0.74667 -0.140716 191 177 174
-0.522464 -0.303789 -0.44626 26 22 25
-0.198341 -0.764859 -0.141587 180 170 166
-0.199655 -0.684099 -0.145724 122 120 121
-0.400407 -0.661421 -0.427133 198 196 197
-0.220309 -0.657723 -0.146714 212 204 203
-0.40067 -0.660245 -0.407114 197 195 194
-0.220419 -0.702019 -0.126747 176 174 175
-0.238972 -0.962908 -0.125375 201 187 185
-0.400579 -0.660361 -0.386534 196 194 193
-0.878638 -0.58912 0.147902 182 178 172
-0.26006 -1.08368 -0.106323 195 184 173
-0.240102 -0.701196 -0.126607 111 111 113
-0.23957 -0.658513 -0.125183 209 201 201
-0.547584 -0.225683 -0.355866 1 1 2
-0.381405 -0.658295 -0.32741 208 204 206
-0.938906 -0.463347 -0.167566 42 47 57
-0.237963 -0.722025 -0.104882 207 195 193
-0.238622 -0.743678 -0.102151 188 175 172
-0.280951 -1.08279 -0.0869769 194 182 172
-0.761945 -0.204498 -0.285945 38 39 41
-0.421358 -0.660048 -0.347134 201 197 198
-1.20177 -0.663038 0.0719548 191 193 201
-0.259178 -0.702413 -0.125151 47 54 61
-0.260374 -1.12249 -0.0464454 207 191 174
-0.722904 -0.462675 -0.252686 8 12 21
-0.440759 -0.660575 -0.366893 196 193 194
-0.40092 -0.658799 -0.307236 207 204 206
-0.26039 -0.657286 -0.126648 221 216 215
-0.259746 -0.683868 -0.10581 108 115 126
-0.261688 -0.716405 -0.104656 185 177 165
-0.258268 -0.743886 -0.0829636 185 176 172
-0.262711 -1.12603 -0.00800787 238 226 220
-0.440706 -0.660521 -0.32736 201 197 197
-0.461213 -0.660242 -0.34685 194 191 191
-0.280931 -0.702804 -0.107103 57 67 74
-0.481302 -0.660757 -0.366979 190 187 188
-0.259752 -0.681684 -0.0855094 131 134 137
-0.280741 -0.683987 -0.086111 126 131 137
-0.278171 -0.766827 -0.0816219 173 168 163
-0.480672 -0.660934 -0.347219 193 190 190
-0.46132 -0.661258 -0.327085 198 193 194
-1.16023 -0.621372 -0.00721584 192 199 213
-0.421081 -0.658722 -0.266719 207 205 207
-0.461117 -0.660172 -0.307189 201 198 199
-0.441154 -0.659393 -0.28729 206 202 205
-0.500686 -0.661232 -0.366549 188 186 187
-0.441085 -0.65913 -0.267083 208 205 208
-0.302796 -0.703271 -0.0863892 102 108 115
-0.299358 -0.658469 -0.0857678 212 205 204
-0.301487 -0.702626 -0.0671106 182 179 181
-0.318879 -1.14259 0.0135762 224 209 199
-0.521308 -0.541446 -0.387433 39 43 48
-0.34388 -1.08298 -0.0136805 205 180 173
-0.299642 -0.723143 -0.0454119 193 188 185
-0.320114 -0.803105 -0.0659825 141 135 129
-0.32017 -1.02244 -0.00459405 194 174 156
-0.339257 -1.14228 0.0145554 217 203 197
-0.319075 -1.00413 -0.00356224 189 171 149
-0.483319 -0.58336 -0.3048 218 224 232
-0.468933 -0.584798 -0.282879 227 228 242
-0.463451 -0.582733 -0.26573 203 200 211
-0.340106 -0.883268 -0.046707 205 198 190
-0.338283 -1.12426 0.0173224 177 160 143
-0.500923 -0.56455 -0.30683 222 228 237
-0.482303 -0.566395 -0.287156 228 230 244
-0.355779 -1.14622 0.0157983 228 212 210
-0.481064 -0.565089 -0.266914 227 229 244
-0.320852 -0.682418 -0.0473332 164 163 170
-0.340125 -0.823581 -0.0458564 204 198 189
-0.338973 -1.00261 0.0136127 169 153 134
-0.359013 -1.12432 0.0334567 179 160 141
-0.341631 -1.12204 0.0521309 226 206 207
-0.501239 -0.565305 -0.287427 231 237 247
-0.461113 -0.602379 -0.224251 214 211 217
-0.446147 -0.602525 -0.221468 223 225 239
-0.444155 -0.60544 -0.20805 215 213 218
-0.319573 -0.723773 -0.0266919 184 178 174
-0.339893 -0.984152 0.0164473 174 157 139
-0.36211 -1.06044 0.0112994 199 178 165
-0.522395 -0.223122 -0.411291 13 14 18
-0.54066 -0.565381 -0.32592 111 114 117
-0.340646 -0.763584 -0.0478184 157 147 138
-0.341185 -1.02281 0.0159667 172 157 135
-0.503581 -0.566455 -0.270239 236 241 252
-0.460302 -0.628425 -0.228009 207 210 213
-0.361821 -1.12037 0.0519702 195 176 164
-0.781614 -0.639041 -0.184742 131 119 116
-0.340522 -1.11889 0.0736566 229 211 216
-0.48133 -0.602767 -0.227022 215 212 216
-0.359433 -0.842737 -0.0257412 205 198 189
-0.380969 -1.1209 0.0371558 207 188 182
-0.521293 -0.565606 -0.269604 235 240 251
-0.502622 -0.587288 -0.248319 230 234 240
-0.401136 -0.96399 -0.0089813 209 199 189
-0.359999 -0.803163 -0.0261045 195 187 178
-0.359499 -0.982513 0.0321826 185 170 144
-0.357814 -1.11702 0.0706748 227 209 209
-0.541472 -0.565093 -0.287097 233 236 247
-0.340837 -0.722262 -0.0258132 182 173 167
-0.359948 -0.963385 0.03409 188 172 149
-0.404009 -1.103 0.0290271 224 211 209
-0.179089 -0.861224 -0.56418 130 140 120
-0.38048 -1.10619 0.0363354 193 174 157
-0.560945 -0.564602 -0.307123 172 173 182
-0.540724 -0.583233 -0.266727 232 235 244
-0.340076 -0.703868 -0.00639996 191 188 187
-0.342983 -0.962707 0.0494408 194 177 156
-0.360677 -1.00229 0.0346107 186 172 146
-0.366358 -1.11226 0.0732677 230 213 217
-0.602035 -0.563718 -0.350038 98 100 116
-0.560521 -0.56463 -0.287868 208 211 220
-0.34076 -0.682633 -0.0076855 188 188 193
-0.342278 -0.944255 0.0494076 184 167 143
-0.352296 -1.11406 0.0960481 149 132 136
-0.599891 -0.584332 -0.326188 173 176 187
-0.362421 -0.98345 0.0522123 188 172 150
-0.377015 -1.02831 0.040338 206 192 176
-0.3823 -1.1217 0.0702838 186 167 148
-0.583392 -0.363324 -0.372091 4 4 10
-0.425664 -1.1037 0.0459609 180 161 157
-0.401118 -1.1226 0.0719354 171 152 133
-0.379442 -1.10954 0.0924073 222 201 205
-0.423438 -1.12301 0.052058 172 154 151
-0.365353 -0.96321 0.0680962 191 173 154
-0.426675 -1.08214 0.0457675 184 165 160
-0.40254 -1.12214 0.0912938 195 176 161
-0.418304 -1.12452 0.0746402 174 157 138
-0.84026 -0.343331 -0.285586 22 24 27
-0.642068 -0.563259 -0.331682 48 51 65
-0.441331 -1.12372 0.0714689 186 164 162
-0.379912 -0.924967 0.0748321 186 168 150
-0.602889 -0.2435 -0.37143 3 4 9
-1.12076 -0.623398 -0.025888 154 159 163
-0.383151 -0.923671 0.0893796 192 173 162
-0.38507 -0.941867 0.0879415 187 169 155
-0.639853 -0.659022 -0.247676 169 163 169
-0.380355 -0.68204 0.0121451 196 197 203
-0.447715 -1.06234 0.068216 194 175 172
-0.442491 -1.12364 0.0948597 190 172 154
-0.401539 -0.923795 0.0713413 187 170 143
-0.398652 -0.923304 0.0938471 182 163 144
-0.641096 -0.65933 -0.227646 171 164 170
-0.400564 -0.94309 0.0930651 181 164 142
-0.459611 -1.06436 0.0911876 193 170 168
-0.461725 -1.08104 0.0889086 190 170 166
-0.442487 -1.10534 0.109121 189 174 151
-0.459526 -1.12318 0.112367 147 129 111
-0.66068 -0.660568 -0.22726 134 127 132
-0.459552 -1.10248 0.114082 159 141 123
-0.623784 -0.143604 -0.371769 22 22 28
-0.64355 -0.263763 -0.352597 3 4 8
-0.747806 -0.50254 -0.236263 20 22 30
-0.663297 -0.383903 -0.33217 5 8 16
-0.400529 -0.702366 0.0345829 166 161 158
-0.404267 -0.907712 0.110837 199 178 169
-0.404062 -0.920691 0.107537 177 160 144
-0.465499 -1.02178 0.0879456 198 180 176
-0.644552 -0.224184 -0.351745 4 4 8
-0.422875 -0.963778 0.112145 176 160 139
-0.444105 -1.06323 0.110682 185 168 146
-0.480505 -1.1235 0.131188 160 143 125
-0.460031 -1.02305 0.115114 179 165 144
-0.443318 -1.0039 0.12791 171 153 131
-0.44229 -0.962588 0.110061 166 151 127
-0.31962 -0.499264 -0.63846 66 72 68
-0.44317 -0.983304 0.11019 160 146 122
-0.428256 -0.967819 0.126421 188 168 152
-0.461108 -0.942482 0.114802 175 161 141
-0.461416 -1.04292 0.133923 170 152 134
-0.703204 -0.383565 -0.311954 4 6 14
-0.659808 -0.660103 -0.168454 172 166 174
-0.6836 -0.223966 -0.329473 6 6 10
-0.44102 -0.922955 0.133181 172 153 137
-0.442203 -0.943778 0.13358 174 156 138
-0.445883 -0.95888 0.143445 165 142 138
-0.481146 -1.04377 0.131562 171 156 135
-0.43963 -0.702127 0.0548254 200 196 193
-0.447012 -0.940732 0.144273 164 143 132
-0.443467 -0.843228 0.113418 181 163 145
-0.481365 -0.983309 0.13157 171 156 134
-0.244818 -0.563331 -0.587315 134 143 120
-0.743191 -0.42408 -0.292768 5 9 17
-0.444632 -0.824544 0.112382 178 161 144
-0.461927 -0.922259 0.13151 175 161 145
-0.744835 -0.383228 -0.293163 6 9 17
-0.541257 -0.543487 -0.327373 18 19 18
-0.460118 -0.844221 0.130679 168 151 139
-0.460683 -0.863971 0.131536 167 151 137
-0.724805 -0.225521 -0.309425 15 14 18
-1.1467 -0.622085 0.170235 169 178 194
-0.7247 -0.244245 -0.311955 12 12 16
-0.459524 -0.803854 0.133499 160 147 144
-0.782381 -0.423254 -0.269834 35 36 44
-0.784556 -0.383763 -0.272283 30 32 39
-0.781291 -0.423672 -0.345552 2 4 7
-0.745158 -0.163996 -0.314287 33 32 35
-0.344497 -0.284252 -0.472405 1 3 3
-0.764816 -0.263128 -0.29253 25 26 30
-0.822359 -0.463581 -0.251116 25 27 35
-0.134219 -0.699575 -0.246044 141 137 126
-0.744972 -0.144832 -0.313985 31 32 36
-0.822387 -0.443779 -0.250121 41 42 50
-0.580745 -0.626927 0.0133555 96 110 150
-0.480624 -0.624383 0.0732487 215 211 212
-0.612213 -0.759116 0.0417676 106 100 86
-0.520991 -0.681572 0.130367 113 109 104
-0.560559 -0.622576 0.0518957 189 191 202
-0.785651 -0.163147 -0.294377 44 43 46
-0.600222 -0.622345 0.032817 205 202 204
-0.245387 -1.10786 0.0240429 241 229 224
-0.579789 -0.619666 0.0529838 219 216 217
-0.539986 -0.722616 0.111137 131 125 122
-0.922152 -0.593802 -0.0334719 48 53 64
-0.804291 -0.225139 -0.270655 39 40 41
-0.86238 -0.423396 -0.230229 52 51 59
-0.54058 -0.623082 0.0927459 213 213 215
-0.560685 -0.622627 0.0925947 224 222 223
-0.77924 -0.645017 -0.0681521 93 99 99
-0.73848 -0.645373 -0.0280296 157 171 168
-0.522885 -0.641856 0.129233 130 125 124
-0.799987 -0.626978 -0.0705045 149 141 151
-0.7186 -0.646678 -0.00985502 173 183 182
-0.540836 -0.62411 0.1129 212 206 208
-0.558608 -0.682903 0.114588 83 80 79
-0.819763 -0.603592 -0.0911447 183 180 186
-0.699439 -0.645528 0.0120188 201 203 207
-0.640677 -0.641222 0.0527068 220 222 225
-0.580341 -0.621461 0.0931772 219 208 195
-0.381438 -0.696391 -0.30699 187 183 161
-0.318552 -0.94371 -0.00407361 186 172 148
-0.560479 -0.607597 0.0321823 108 114 142
-0.3634 -0.443995 -0.470458 18 21 22
-0.483777 -0.744874 0.145662 91 96 94
-0.841213 -0.483443 0.0321888 37 38 46
-0.578686 -0.862998 0.0883554 135 133 133
-0.313883 -0.49708 -0.584201 44 46 51
-0.803428 -0.507745 0.0473358 37 38 47
-0.91874 -0.614484 -0.100981 52 51 64
-0.158107 -0.82284 -0.203213 153 145 133
-0.881256 -0.483879 0.051657 110 111 120
-0.435653 -0.243421 -0.479974 58 56 65
-0.616171 -0.576452 -0.399951 63 63 72
-0.758748 -0.565693 -0.0262305 40 46 58
-0.941942 -0.601325 0.0935853 204 207 214
-0.819547 -0.538483 -0.00566471 44 48 58
-0.743173 -0.510043 0.0259896 36 37 47
-0.540131 -0.681739 0.133883 66 65 64
-0.639974 -0.442636 -0.425546 26 25 34
-1.10088 -0.608289 0.0527902 183 190 204
-0.683012 -0.205579 -0.329871 9 10 15
-0.340019 -0.503501 -0.526488 49 51 56
-0.502348 -0.163037 -0.390243 2 3 3
-0.659753 -0.657773 0.0728859 202 178 164
-0.237518 -0.603079 -0.492825 120 123 114
-0.0971223 -0.841544 -0.285917 170 161 151
-0.0958268 -0.902692 -0.266109 176 163 154
-0.0852467 -1.0835 -0.245931 156 144 132
-0.0888902 -0.782633 -0.213988 201 185 177
-0.0896046 -0.807943 -0.21469 196 180 172
-0.0905486 -0.883484 -0.214246 211 187 181
-0.101079 -1.08336 -0.226878 181 167 156
-0.105254 -0.782678 -0.188462 174 162 155
-0.328347 -0.402402 -0.62267 69 68 70
-0.123409 -0.802905 -0.189846 186 173 165
-0.138833 -1.12303 -0.203829 180 170 159
-0.139183 -1.14289 -0.204679 179 170 158
-0.780133 -0.660902 -0.107017 164 149 161
-0.679808 -0.602538 0.0335782 176 182 190
-0.420225 -0.679682 -0.486408 167 162 139
-0.143431 -0.803551 -0.170513 190 177 169
-0.14547 -0.84136 -0.171984 200 188 181
-0.158575 -1.08273 -0.184994 184 174 165
-0.742721 -0.321772 -0.289721 8 8 13
-0.158944 -1.06373 -0.185048 183 174 167
-0.398387 -0.481779 -0.483964 46 48 54
-0.162012 -0.782505 -0.149155 169 157 145
-0.356961 -0.567659 -0.504662 96 98 91
-0.16308 -0.802233 -0.149074 184 171 157
-0.162467 -0.840784 -0.149509 191 180 169
-0.519639 -0.661364 -0.348213 189 186 186
-0.218473 -1.10305 -0.143227 189 181 170
-0.218052 -1.1236 -0.144324 193 184 172
-0.439815 -0.342398 -0.501514 21 23 31
-0.239416 -1.10316 -0.124175 195 184 172
-0.239127 -1.12423 -0.124658 198 186 173
-0.237993 -1.06377 -0.124351 193 184 177
-0.239428 -0.982832 -0.124896 200 185 184
-0.238613 -1.00276 -0.124827 199 184 183
-0.260246 -1.12316 -0.106444 198 185 172
-0.319051 -1.12387 -0.0661525 165 155 148
-0.339518 -1.14343 -0.0457745 192 177 165
-0.117166 -1.14384 -0.223504 175 166 155
-0.340883 -0.658528 -0.16708 217 217 215
-0.339208 -1.12345 -0.0452662 196 182 170
-0.483835 -0.223416 -0.432967 21 23 27
-0.339955 -1.02313 -0.0462173 198 190 182
-0.380878 -0.658746 -0.166841 215 214 214
-0.538002 -1.02446 0.0604834 191 179 170
-0.360373 -1.08292 -0.0269745 200 190 181
-0.361008 -0.683125 -0.526588 206 195 188
-0.380819 -0.658223 -0.147582 217 217 219
-0.863504 -0.518632 -0.106708 150 154 158
-0.540175 -0.563542 -0.346066 107 111 119
-0.400594 -0.65849 -0.147287 216 215 218
-0.522185 -0.203567 -0.409068 7 9 12
-0.544798 -0.344103 -0.393103 4 5 10
-0.401371 -0.658391 -0.12703 216 216 216
-0.460432 -1.12276 0.0329877 181 171 161
-0.421161 -0.658872 -0.127222 213 212 213
-0.180392 -0.723016 -0.593159 144 155 132
-0.579372 -0.565428 -0.309336 130 131 137
-0.541154 -0.604861 -0.249039 221 224 230
-0.600702 -0.564753 -0.308146 104 103 104
-0.560896 -0.606192 -0.248323 204 205 208
-0.420569 -1.00194 0.012311 218 212 204
-0.462169 -0.723076 0.0521189 205 196 192
-0.622129 -0.362982 -0.351047 5 6 12
-0.462952 -1.12357 0.0703078 184 170 164
-0.382291 -0.743103 -0.00904722 181 170 163
-0.603395 -0.20468 -0.372386 5 5 9
-1.05875 -0.601811 0.143851 165 158 152
-0.840128 -0.643001 0.133417 189 193 190
-0.664904 -0.363914 -0.331632 7 9 16
-0.643126 -0.203946 -0.350799 11 13 19
-0.458511 -0.844436 0.0557179 194 187 178
-0.5836 -0.046534 -0.393429 52 59 56
-0.458099 -0.824103 0.0563089 196 189 181
-0.720593 -0.640985 -0.206655 165 139 127
-0.699875 -0.658822 -0.186883 160 152 163
-0.720485 -0.581987 -0.00577937 119 125 136
-0.699478 -0.657396 -0.171617 197 186 219
-0.656325 -0.655318 -0.134896 229 217 252
-1.24025 -0.609981 0.129087 188 197 216
-0.63825 -0.654974 -0.109876 210 197 217
-0.739642 -0.640132 -0.186037 150 139 135
-0.260587 -0.94323 -0.046806 191 165 147
-0.861435 -0.641242 -0.247756 115 117 115
-0.661304 -0.656511 -0.0660455 201 199 205
-0.580021 -0.658077 -0.00748799 129 140 174
-0.700946 -0.503885 -0.0272605 151 156 164
-1.00076 -0.684197 0.117108 172 177 172
-0.620876 -0.65651 -0.0286021 136 149 186
-0.600099 -0.657091 -0.00740663 81 102 162
-0.681771 -0.656542 -0.06709 196 194 194
-0.82065 -0.503907 0.0329308 35 36 44
-0.76066 -0.661638 -0.127698 134 123 141
-0.741228 -0.662079 -0.126298 139 130 143
-0.881884 -0.663275 -0.226771 155 153 151
-0.680794 -0.65665 -0.0479819 196 194 192
-0.760217 -0.660505 -0.10649 157 144 154
-0.662056 -0.656321 -0.0269966 166 170 185
-0.581079 -0.65986 0.0329062 192 193 205
-0.561249 -0.657377 0.0525299 215 214 221
-0.657319 -0.69964 0.20732 53 48 41
-0.556138 -0.8209 0.109545 109 106 102
-0.780615 -0.663097 -0.126495 132 112 125
-0.062652 -0.699801 -0.300375 170 173 168
-0.681671 -0.347428 -0.289984 11 9 18
-0.641631 -0.656648 -0.00668432 127 136 163
-0.780471 -0.344424 -0.228863 33 31 38
-0.719283 -0.639106 0.0740963 212 207 211
-0.661076 -0.656808 -0.0071669 159 161 169
-0.381477 -0.80348 -0.0280974 198 187 177
-0.581018 -0.659052 0.0525291 220 219 225
-0.539504 -0.743575 0.111622 139 134 130
-0.825253 -0.36392 -0.254437 35 34 43
-0.439456 -0.478795 -0.484965 44 46 53
-0.841113 -0.624084 -0.164367 122 82 94
-0.780359 -0.659975 -0.0882928 112 111 116
-0.575506 -0.763868 0.0868399 162 152 147
-0.641504 -0.540907 -0.310476 49 51 60
-0.679822 -0.657342 -0.00843155 203 203 203
-0.641147 -0.657753 0.0135134 188 187 189
-0.780631 -0.65993 -0.0680484 89 96 97
-0.740473 -0.656606 -0.0673304 158 162 166
-0.660111 -0.658038 0.01211 202 198 198
-0.573373 -0.300159 -0.43962 5 4 11
-0.740433 -0.65645 -0.046804 140 153 152
-0.619855 -0.748125 0.0878829 30 28 32
-0.662136 -0.546012 0.0293802 69 72 80
-0.839816 -0.644988 -0.126383 74 67 74
-0.800118 -0.662914 -0.0685568 80 90 89
-0.399244 -0.743518 -0.0231732 201 192 190
-0.840372 -0.625328 -0.109675 117 113 117
