ply
format ascii 1.0
comment Created by Open3D
element vertex 1222
property double x
property double y
property double z
property uchar red
property uchar green
property uchar blue
end_header
-1.00124 -0.724474 1.07361 221 228 239
-0.977963 -0.843164 1.27185 179 177 174
-1.02227 -1.19962 1.00808 211 212 222
-0.99233 -0.840457 1.23347 216 221 231
-0.959305 -0.720682 1.27179 195 193 186
-0.962483 -1.14305 1.0323 189 194 201
-0.941947 -0.624704 1.25184 181 181 174
-0.95874 -1.12234 1.09285 201 205 212
-0.92829 -1.02153 1.19173 144 155 144
-0.90257 -0.904638 1.31023 152 163 147
-0.940216 -0.783618 1.09393 210 215 229
-0.943835 -1.12379 1.05427 192 197 207
-0.940993 -0.842781 1.19104 190 194 197
-0.980132 -0.682846 1.23167 194 196 198
-0.943159 -0.96323 1.07295 199 201 207
-0.908961 -0.900544 1.06155 184 186 194
-1.0361 -0.68938 1.22378 235 243 255
-0.982842 -1.02339 1.23348 134 144 131
-0.98154 -0.763052 1.15459 158 153 150
-0.909333 -0.804809 1.1416 166 159 151
-0.92316 -0.903051 1.23225 123 131 121
-0.904242 -0.742801 1.32904 151 162 148
-0.962053 -0.582583 1.23367 178 177 169
-1.03949 -0.680647 1.16985 223 231 244
-0.980807 -1.144 1.0333 203 212 222
-0.967947 -0.567668 1.21563 177 176 168
-1.04268 -0.821605 1.05587 221 228 240
-0.99961 -1.18341 1.01208 207 215 223
-0.961077 -0.901031 1.03121 136 145 129
-0.923898 -1.02314 1.09191 208 210 219
-1.0592 -1.24741 1.05202 213 218 228
-0.999574 -1.20164 1.09576 217 218 228
-0.941419 -0.963701 1.09226 203 207 214
-0.917875 -0.743036 1.19156 196 199 202
-1.00106 -0.804245 1.09135 196 204 219
-0.881932 -0.763415 1.27179 188 194 196
-0.96022 -0.963134 1.09113 206 210 217
-0.953879 -1.19839 1.08861 212 217 225
-0.961077 -1.20215 1.03224 196 203 212
-0.973779 -0.92153 1.11377 145 149 147
-0.900533 -0.861112 1.31047 143 152 138
-0.961651 -0.803165 1.25226 190 184 178
-1.08116 -0.703802 1.09335 184 192 198
-0.966594 -1.04684 1.04072 142 139 133
-0.901114 -0.903204 1.27216 122 131 118
-0.960187 -0.743156 1.13269 224 231 241
-1.01851 -0.8832 1.06636 128 135 130
-1.07465 -0.803513 1.0507 173 182 186
-0.941119 -0.682572 1.23277 185 188 190
-1.0003 -0.662938 1.17387 191 193 196
-0.960567 -0.783568 1.21267 196 192 191
-0.86887 -0.7831 1.2707 158 166 163
-0.976616 -0.964977 1.21267 115 124 113
-0.929578 -0.946848 1.1483 146 157 145
-0.981525 -1.20407 0.99183 192 203 222
-0.967144 -0.727529 1.03963 175 182 192
-0.940677 -0.982949 1.11137 150 159 157
-0.963339 -1.22196 0.97745 187 200 227
-0.948521 -0.846708 1.06089 155 157 157
-0.888178 -0.84313 1.27215 116 124 112
-0.958645 -0.823564 1.21245 186 180 175
-0.94444 -0.964798 1.06002 189 183 181
-0.909208 -0.72926 1.19991 193 195 201
-1.02214 -0.564603 1.17422 209 207 203
-1.08136 -0.723879 1.03205 179 185 185
-1.12047 -0.722582 1.07266 179 185 188
-0.90752 -0.88184 1.33103 149 163 143
-1.05619 -1.24471 0.997153 170 180 209
-0.907951 -0.725422 1.21385 193 195 199
-1.07798 -0.843345 1.02894 122 129 119
-0.977205 -1.02207 1.11637 136 143 138
-0.964459 -0.962789 1.05601 131 138 129
-0.954719 -1.07276 0.993561 207 202 204
-1.04039 -0.622728 1.15231 205 210 217
-0.979778 -0.581436 1.19265 188 186 180
-0.900143 -0.842272 1.31091 137 148 134
-0.975411 -1.08991 1.04069 208 213 218
-0.998867 -1.22388 0.993892 193 200 218
-0.996189 -1.16552 1.05062 186 183 186
-1.08283 -0.726341 1.05247 174 181 181
-1.09574 -0.841143 1.01459 137 146 131
-0.922028 -1.20134 1.09275 183 187 194
-0.922323 -0.803406 1.19277 194 195 197
-0.924033 -1.06306 1.07722 212 216 225
-0.978753 -0.862656 1.05245 128 133 127
-0.93656 -1.20197 1.09189 189 195 205
-1.022 -0.724293 1.21306 210 218 232
-0.958721 -1.18212 1.03442 186 191 197
-0.946554 -0.744984 1.07378 213 220 232
-0.959661 -0.882862 1.23308 145 142 129
-1.00893 -0.879513 0.981649 130 134 117
-1.02312 -0.707254 1.03325 149 156 154
-0.984493 -0.687501 1.09455 219 224 235
-0.899603 -0.763012 1.2723 195 198 200
-0.942665 -0.684272 1.31088 200 205 205
-0.923725 -0.916876 1.25302 127 137 126
-1.06105 -0.923969 1.03114 126 136 116
-0.998502 -0.801931 1.21205 211 216 227
-0.986226 -0.568607 1.1771 196 193 188
-1.04158 -0.624763 1.09299 213 218 229
-0.923684 -0.802326 1.09291 202 207 214
-1.0397 -0.740617 1.09066 228 237 249
-1.04159 -0.744704 1.11448 239 247 253
-0.981523 -0.942478 1.15259 120 128 116
-0.908831 -0.943416 1.27253 138 146 132
-1.00607 -0.784404 1.01583 120 126 117
-0.981792 -0.663182 1.19345 175 177 180
-0.904213 -0.800987 1.32771 137 149 132
-0.929783 -0.632015 1.25603 171 171 159
-0.925352 -1.02363 1.10674 197 198 204
-0.934031 -1.20254 0.966441 226 226 237
-0.981917 -0.584626 1.25244 211 211 204
-0.94298 -1.16477 0.958112 211 211 224
-0.941245 -0.663765 1.21242 190 192 193
-1.14252 -0.709354 1.04198 170 179 183
-1.00081 -0.803296 1.13271 176 175 180
-0.999612 -0.624884 1.1529 209 214 221
-0.97816 -0.823462 1.2721 185 181 176
-1.02068 -1.00313 1.03293 146 156 140
-1.06432 -0.842071 1.03431 126 134 122
-0.960294 -0.783606 1.0921 207 213 226
-1.0403 -0.683529 1.09262 187 195 203
-0.942725 -1.18409 0.99577 208 215 222
-0.921035 -1.18342 1.03234 196 199 209
-1.01876 -0.801861 1.11406 201 204 215
-0.918496 -1.04323 1.0921 210 213 223
-0.938746 -0.824196 1.27268 174 172 169
-1.0417 -0.663318 1.09285 179 188 201
-0.920016 -0.762689 1.23178 203 205 207
-1.12121 -0.702741 1.0513 156 165 173
-0.962422 -0.803052 1.17284 185 186 186
-1.09334 -0.822309 1.02887 121 129 125
-0.94286 -0.742833 1.29289 185 183 176
-0.959082 -0.844649 1.07233 173 176 181
-1.05324 -0.958997 1.04897 135 145 128
-0.939762 -0.803907 1.19194 197 201 205
-1.06015 -0.681498 1.11144 202 211 221
-1.05405 -0.678531 1.17033 225 233 247
-0.997746 -1.04392 1.17545 137 148 136
-1.06005 -0.705384 1.01552 203 211 208
-0.919491 -0.702592 1.2721 197 201 202
-1.01942 -1.20267 0.992032 197 204 219
-1.00437 -0.769813 1.25029 198 202 207
-1.0796 -0.6411 1.09222 212 219 226
-0.983391 -0.704915 1.05415 220 226 236
-0.90655 -0.784299 1.17401 187 186 185
-0.938147 -0.80243 1.11159 187 191 197
-0.997539 -0.740055 1.27541 190 188 182
-1.01659 -0.922633 1.03415 134 144 126
-0.900443 -0.783241 1.23321 202 205 209
-1.02215 -0.643938 1.17384 193 197 203
-0.910489 -0.878446 1.20138 120 129 119
-1.03225 -0.754853 1.12612 248 254 254
-0.940384 -0.802865 1.17226 184 187 187
-0.942788 -0.803532 1.23276 201 202 204
-1.04205 -0.923997 1.03448 125 134 116
-0.93981 -0.801815 1.13242 159 162 164
-0.999746 -1.12462 1.03317 203 210 216
-1.01327 -1.13112 1.01762 138 138 134
-0.940879 -0.683907 1.1741 197 200 207
-0.980251 -1.16366 0.993204 201 207 217
-0.923616 -0.982936 1.10928 135 140 138
-0.974946 -0.761185 1.23391 190 185 180
-0.994513 -0.940884 1.12186 162 164 165
-0.980864 -0.644309 1.2721 194 199 201
-1.01915 -0.82055 1.06912 224 232 246
-0.940029 -1.18391 0.958571 198 200 211
-0.904196 -0.922624 1.25302 124 133 120
-0.885247 -0.822696 1.21087 181 187 189
-1.03433 -1.16452 1.06401 179 184 187
-1.00235 -1.226 1.02524 204 201 207
-1.08222 -0.740035 1.01376 210 217 213
-0.99795 -0.905963 1.14913 110 109 96
-1.0435 -1.26581 1.03799 211 215 223
-0.977129 -0.862516 1.25563 184 182 182
-0.937778 -0.963514 1.15207 131 139 127
-1.03495 -0.781616 1.1146 229 239 253
-0.966509 -0.68938 1.13359 229 236 249
-0.88891 -0.889941 1.27915 123 129 115
-0.998528 -0.721322 1.09099 226 233 243
-0.960022 -0.703049 1.27353 202 201 194
-1.02885 -1.19985 0.955281 188 165 146
-1.02279 -1.22832 0.962575 147 130 113
-1.01874 -1.24571 0.973274 172 175 192
-1.02079 -1.20488 0.973842 184 186 191
-0.982284 -1.24397 0.974479 194 203 224
-0.9988 -1.22184 0.976948 168 185 220
-0.999017 -1.20313 0.975998 183 193 212
-0.979708 -1.22392 0.989973 187 199 221
-0.961709 -1.2233 0.993616 207 212 224
-0.999416 -1.18478 0.97557 183 189 203
-1.00296 -1.16716 0.980507 186 187 196
-0.981046 -1.18276 0.992158 197 204 217
-0.961633 -1.20306 0.993158 201 208 221
-0.943393 -1.22431 0.995883 212 217 227
-0.999258 -1.16422 0.991778 197 202 209
-0.963702 -1.18372 0.993345 196 203 217
-0.938842 -1.22352 1.0111 221 227 238
-0.920683 -1.22306 1.01488 222 226 236
-0.98059 -1.14386 0.995053 200 204 210
-0.98185 -1.14463 1.01219 210 216 225
-0.962027 -1.16416 1.01247 213 219 229
-0.941091 -1.16359 1.01268 215 221 229
-0.996663 -0.721483 1.1708 223 227 233
-1.05458 -1.24634 0.95557 199 174 155
-1.05495 -1.24296 0.972491 179 160 148
-0.999221 -1.26383 0.992011 203 209 227
-1.05702 -1.22238 0.991648 170 170 180
-0.981526 -1.24315 0.99314 200 208 224
-1.07312 -1.20395 0.985196 130 118 117
-1.05914 -1.20129 0.992238 151 143 143
-1.02205 -0.86434 0.994843 136 144 124
-1.04151 -1.20577 0.995409 209 210 219
-0.999875 -1.22557 1.01322 199 204 226
-0.978254 -1.22183 1.01158 215 219 230
-1.02136 -1.1857 1.01283 205 212 221
-0.978053 -1.22186 1.03081 211 213 221
-1.01962 -1.17938 1.03202 209 216 224
-0.998634 -1.19903 1.02986 205 202 207
-0.963968 -1.22451 1.033 207 215 225
-1.0209 -0.823411 1.05572 219 225 237
-0.982157 -1.14278 1.06925 195 197 203
-0.958528 -0.963267 1.07274 186 189 194
-0.904476 -0.684797 1.31014 209 217 220
-0.962294 -0.783704 1.19271 193 190 189
-0.94198 -0.903677 1.17578 113 120 106
-0.979953 -0.661595 1.09269 198 207 215
-1.06078 -0.763315 1.09325 229 238 253
-0.903602 -0.841748 1.19343 154 156 151
-0.9809 -0.584353 1.23218 173 172 164
-1.01835 -1.26629 0.993428 204 211 233
-1.04269 -1.26355 0.994917 189 197 226
-1.07391 -1.2176 0.983582 143 130 125
-1.06773 -1.18831 0.979576 149 141 130
-1.02088 -1.22448 1.01251 201 206 225
-1.04083 -1.22252 1.01532 217 217 228
-0.9798 -1.02067 1.19142 136 148 136
-1.00219 -0.803572 1.01387 121 127 112
-0.889701 -0.923906 1.27053 129 135 120
-1.07231 -1.22201 1.01452 211 211 214
-1.02447 -1.22678 1.03184 215 217 227
-1.02304 -0.924075 1.05384 125 133 120
-0.997157 -0.681711 1.21161 194 199 203
-0.942634 -0.70298 1.11238 240 242 247
-0.9796 -0.802549 1.15235 173 169 167
-1.01988 -1.26315 1.01255 202 205 228
-1.04063 -1.26475 1.01044 208 215 236
-1.02169 -1.24234 1.01506 204 211 232
-1.01986 -1.24146 1.03289 209 208 216
-1.03563 -0.859675 0.988551 135 142 122
-1.08886 -1.23833 1.02593 219 217 224
-1.03744 -1.21965 1.05121 218 219 228
-1.01745 -1.24016 1.05562 196 202 213
-0.916913 -0.822581 1.23082 191 190 189
-0.92887 -0.686418 1.17387 199 197 195
-0.937025 -1.21717 0.962341 226 226 235
-0.926291 -1.22214 0.974863 228 228 238
-0.934076 -1.18019 0.969518 205 208 229
-0.941897 -1.14939 0.96121 188 197 229
-0.938515 -1.16228 0.970376 174 185 214
-0.920985 -1.22331 0.995213 226 228 238
-0.940369 -1.14422 0.974057 187 195 215
-0.957272 -1.1017 0.970953 214 211 216
-0.937039 -1.14077 0.993961 202 205 213
-0.919863 -1.18345 1.01333 219 223 233
-0.980366 -1.18423 1.06907 198 203 212
-0.923682 -1.14831 0.995348 220 220 230
-0.923614 -1.14659 1.01362 216 216 225
-0.961628 -1.08561 0.993388 205 201 204
-0.941493 -1.12412 1.0131 212 216 224
-0.906483 -1.20641 1.03178 225 226 238
-0.938816 -1.14322 1.01244 210 216 224
-0.923598 -1.16475 1.03198 187 190 198
-0.971034 -1.07569 0.99728 166 153 148
-0.925185 -1.14653 1.03089 186 187 195
-0.904878 -1.2064 1.0523 214 213 224
-0.962841 -1.08565 1.01242 196 197 202
-0.9466 -1.10456 1.03164 194 198 204
-0.924267 -1.16475 1.05551 198 203 213
-0.995347 -0.700752 1.27131 186 184 179
-0.921482 -1.20196 1.05273 189 193 202
-0.898997 -1.22392 1.07218 198 196 203
-0.919928 -0.963615 1.21252 139 150 137
-0.94066 -0.94359 1.19327 127 137 126
-1.00144 -0.763861 1.15135 201 204 209
-1.00179 -1.20392 1.05042 173 174 179
-0.961166 -0.822811 1.19225 186 182 178
-1.04024 -0.902349 1.05529 131 139 126
-0.99989 -0.662116 1.15195 192 194 198
-0.942399 -0.801841 1.29296 184 187 185
-0.955829 -1.15084 0.961582 195 193 220
-0.928836 -1.12309 0.975947 201 205 228
-0.910084 -1.18684 1.01932 232 232 242
-0.942384 -1.08214 0.993987 221 219 226
-0.910646 -1.16874 1.01554 234 232 241
-0.909816 -1.1697 1.03252 199 197 206
-0.925427 -1.12669 1.02794 202 200 209
-1.05913 -0.843106 1.0459 157 166 165
-0.922649 -0.704285 1.19408 194 196 198
-0.899424 -0.882587 1.27203 118 126 113
-0.922747 -0.803209 1.15404 169 170 170
-0.979403 -0.9002 1.06806 176 180 183
-0.96038 -0.762986 1.27307 192 193 193
-1.01831 -1.19144 1.09766 216 219 232
-0.981469 -1.20574 1.10716 220 221 230
-0.982589 -1.22318 1.11302 187 188 191
-0.995097 -1.16726 1.10708 219 219 230
-0.981242 -1.16295 1.11401 207 209 218
-0.978736 -1.14385 1.11323 206 208 216
-0.97895 -1.12524 1.1132 209 211 218
-0.960314 -1.16899 1.12415 237 233 241
-0.959645 -1.14357 1.13429 222 220 227
-0.979896 -1.10329 1.11235 199 202 209
-0.977507 -1.12136 1.12559 211 213 220
-0.967426 -1.12633 1.13227 221 220 227
-0.999861 -1.08887 1.12044 198 197 200
-1.02053 -0.584896 1.19148 198 195 191
-0.964775 -0.724773 1.13274 234 241 251
-0.962034 -0.625088 1.25289 178 180 175
-1.1204 -0.70266 1.11325 194 203 213
-0.959301 -0.681516 1.25182 188 191 194
-0.939267 -0.942054 1.29316 124 132 118
-1.08155 -0.744375 1.0942 203 211 221
-0.960982 -0.743472 1.15311 191 194 200
-0.99825 -1.14169 1.03101 211 219 228
-1.02087 -0.780976 1.0329 152 159 160
-0.980274 -1.12428 1.03373 210 216 225
-0.939208 -1.16239 1.05296 192 197 208
-0.985323 -1.11026 1.03476 212 217 224
-0.980595 -1.10509 1.05385 185 186 190
-0.962159 -1.10677 1.05521 186 191 198
-0.959498 -1.12276 1.05554 192 198 209
-0.919748 -1.18232 1.07294 195 200 210
-0.92345 -1.20081 1.07078 178 183 193
-0.904412 -1.20639 1.07443 210 210 220
-0.962629 -0.743995 1.27267 198 202 204
-0.90793 -1.18506 1.0767 197 198 210
-0.942161 -1.12266 1.0717 206 211 222
-0.918479 -1.14262 1.07193 218 223 233
-0.999871 -1.10522 1.07235 179 177 180
-0.978734 -1.10366 1.07167 190 191 196
-0.907019 -1.1428 1.07677 214 220 231
-0.907434 -1.16006 1.07617 194 201 212
-0.904032 -1.20897 1.08754 183 180 181
-1.04146 -0.665118 1.15404 207 215 224
-1.00024 -1.12416 1.06892 179 180 183
-0.943507 -1.10347 1.07204 205 211 221
-0.92057 -1.1033 1.07286 213 219 229
-0.906229 -1.12402 1.07765 219 225 236
-0.959996 -1.08333 1.07341 201 203 211
-0.904133 -1.14324 1.08977 194 200 211
-0.960674 -1.06232 1.07379 197 199 204
-0.94024 -1.06262 1.07304 203 206 213
-0.959725 -1.044 1.07444 200 201 206
-0.940972 -1.04417 1.07362 202 204 212
-0.940755 -1.02343 1.09049 196 200 207
-0.941475 -1.02367 1.0737 203 206 213
-0.939449 -1.0031 1.09107 195 200 207
-1.08088 -0.802246 1.03288 138 144 141
-1.09439 -0.823904 1.04792 142 149 149
-0.913991 -1.05749 1.10636 219 221 228
-0.909588 -1.06858 1.10595 219 221 229
-1.08117 -0.784654 1.05116 161 168 169
-1.07711 -0.821676 1.0528 157 165 171
-0.918932 -1.04214 1.10554 219 220 228
-1.06186 -0.741392 1.0332 158 162 161
-1.06188 -0.76283 1.03375 141 147 142
-0.921534 -0.98309 1.09287 189 193 201
-1.06073 -0.701421 1.0346 183 189 189
-1.06131 -0.721533 1.03606 176 182 181
-1.04162 -0.724313 1.03383 156 161 158
-1.02109 -0.762811 1.05298 197 202 213
-1.04206 -0.803184 1.05605 192 198 206
-0.971412 -0.919351 1.08657 230 228 237
-0.958903 -0.902549 1.09103 193 195 201
-0.94347 -0.904204 1.07395 201 203 210
-0.924238 -1.00057 1.10961 160 164 165
-1.07984 -0.703758 1.03348 180 187 186
-1.01964 -0.743241 1.05265 200 206 215
-1.00063 -0.743523 1.05361 206 212 222
-0.999388 -0.76236 1.05094 187 193 204
-1.02076 -0.778922 1.05367 210 215 226
-0.998639 -0.781761 1.0525 226 232 246
-1.1427 -0.721403 1.05386 190 197 201
-1.04164 -0.704034 1.03272 168 175 174
-1.02085 -0.723426 1.0524 190 194 199
-0.978946 -0.744206 1.05279 197 203 214
-0.959232 -0.88218 1.09122 191 193 198
-1.0802 -0.684467 1.05358 162 168 175
-1.06368 -0.690222 1.03583 196 202 204
-1.04284 -0.685259 1.05431 181 185 189
-1.04079 -0.70224 1.05272 166 170 171
-1.02078 -0.706562 1.05286 185 188 191
-0.960799 -0.76308 1.05293 194 198 211
-0.959036 -0.802236 1.07243 214 219 232
-0.940832 -0.922642 1.11118 156 161 158
-1.08216 -0.664665 1.05068 163 169 179
-1.05962 -0.685758 1.05231 176 182 185
-0.960745 -0.742964 1.05413 184 190 202
-0.962004 -0.764436 1.07298 201 207 219
-0.943593 -0.803446 1.07478 215 220 231
-0.981206 -0.846376 1.09043 166 164 166
-0.957706 -0.843998 1.09136 194 194 199
-1.1022 -0.66505 1.05555 156 162 173
-1.02457 -0.683576 1.05596 177 180 183
-0.959574 -0.742302 1.07209 216 222 235
-0.956764 -0.822692 1.08988 202 205 214
-0.941685 -0.863797 1.093 192 194 199
-0.941675 -0.883008 1.1112 151 155 151
-1.10005 -0.646076 1.05496 181 185 192
-1.08087 -0.644269 1.0573 194 197 205
-1.04187 -0.666145 1.05925 193 196 201
-0.942258 -0.763069 1.074 192 197 210
-1.06252 -0.648835 1.05918 210 212 217
-1.01967 -0.682995 1.0733 174 177 182
-1.02197 -0.703612 1.07271 174 180 183
-1.00053 -0.700228 1.07253 197 203 210
-0.941223 -0.823168 1.09333 188 192 197
-0.941362 -0.843327 1.11073 153 157 157
-0.961995 -0.923394 1.13213 122 127 118
-1.00551 -0.687304 1.078 200 202 210
-0.920326 -0.723344 1.27231 197 199 199
-0.939516 -0.822435 1.11202 164 167 169
-0.94283 -0.882824 1.1333 115 120 110
-0.940598 -0.744814 1.25283 196 193 191
-1.0802 -0.622665 1.07094 210 213 218
-1.08308 -0.645346 1.07671 194 199 205
-1.06297 -0.625803 1.07716 209 211 217
-0.944796 -0.725053 1.09409 239 244 253
-0.942956 -0.864117 1.13206 112 117 110
-0.960517 -0.862216 1.13463 126 130 128
-0.961224 -0.705066 1.09302 238 243 252
-0.940265 -0.664353 1.19333 180 182 184
-1.02946 -0.651204 1.08074 209 212 218
-1.02238 -0.684834 1.0946 186 193 201
-1.00031 -0.682786 1.09186 197 202 211
-0.960486 -0.685262 1.09271 232 238 246
-0.939617 -0.764017 1.11221 208 213 225
-0.939248 -0.822052 1.13213 139 141 141
-1.0219 -0.64562 1.09398 190 197 210
-1.00357 -0.665352 1.09514 190 196 205
-0.939433 -0.743904 1.11171 224 228 239
-0.959067 -0.823419 1.13356 162 167 170
-0.980717 -0.86414 1.15315 146 144 138
-1.01867 -0.763887 0.99877 154 165 143
-1.00241 -0.742772 1.03106 147 153 152
-1.0834 -0.627665 1.09556 209 215 222
-1.05738 -0.618154 1.08894 225 228 235
-0.946787 -0.704396 1.09518 237 243 253
-0.922555 -0.784224 1.1326 161 159 156
-0.97707 -0.883052 1.1714 164 160 152
-1.06347 -0.608889 1.09457 212 216 223
-0.923349 -0.762675 1.11417 186 186 191
-0.982817 -0.684532 1.1132 223 229 241
-0.928474 -0.744742 1.11572 206 207 214
-0.977785 -0.844077 1.17025 171 165 158
-0.930465 -0.731041 1.12038 238 239 253
-0.926158 -0.744167 1.13294 177 173 173
-0.940712 -0.783666 1.13255 185 190 197
-0.941018 -0.884195 1.25264 125 130 118
-0.980789 -0.862592 1.29202 142 138 126
-0.960778 -1.02336 1.11168 155 162 163
-0.899278 -0.803005 1.27256 175 179 178
-0.996447 -1.20194 1.10856 214 219 229
-0.977563 -1.10681 1.09631 212 215 226
-0.964041 -1.11674 1.10982 192 197 205
-0.960501 -1.0623 1.09325 201 205 212
-0.961752 -1.0431 1.11018 173 177 180
-0.958665 -0.922295 1.09245 198 202 208
-0.92157 -0.923698 1.31088 137 145 131
-1.05978 -0.784202 1.07354 206 214 227
-0.959276 -0.883225 1.07252 185 188 193
-0.943462 -0.881958 1.07535 189 189 193
-1.14136 -0.763473 1.07467 172 178 181
-1.12287 -0.781812 1.07203 182 188 192
-1.07955 -0.801323 1.0765 174 180 197
-0.978053 -0.781813 1.07178 197 204 217
-0.980009 -0.804248 1.07346 208 214 228
-0.966234 -1.02271 1.133 144 154 148
-1.14205 -0.744503 1.07573 174 180 185
-1.12251 -0.764596 1.07514 163 168 171
-1.12184 -0.781353 1.08556 220 226 238
-1.07962 -0.784837 1.0729 200 207 221
-0.965948 -1.0032 1.13329 135 145 135
-0.981658 -1.04358 1.13375 136 145 140
-1.13403 -0.761804 1.08507 175 181 186
-0.982895 -0.74446 1.07392 225 232 245
-0.958497 -0.803171 1.0932 214 220 234
-0.941443 -0.843938 1.09318 189 193 198
-1.12128 -0.724109 1.09418 181 188 197
-1.10118 -0.743348 1.09381 180 188 194
-1.13987 -0.704159 1.09206 201 209 216
-0.980468 -0.723772 1.07293 229 237 249
-0.96225 -0.903284 1.13095 116 121 110
-1.08019 -0.721201 1.09147 185 192 199
-0.978055 -0.741227 1.09072 236 242 252
-1.10216 -0.705282 1.09213 186 194 202
-1.02102 -0.702888 1.09189 198 205 213
-1.06129 -0.72311 1.11396 215 224 235
-0.959073 -0.783635 1.11337 199 205 218
-1.0618 -0.703382 1.11474 210 218 230
-1.10111 -0.683563 1.1138 201 210 222
-1.04017 -0.703477 1.11357 215 223 235
-1.02053 -0.700517 1.11287 221 229 241
-0.965015 -0.725863 1.11332 236 243 252
-0.960346 -0.862796 1.15303 148 153 150
-0.982687 -0.704839 1.11379 231 237 248
-0.886769 -0.843586 1.29197 119 126 114
-0.93992 -0.743921 1.13219 225 232 243
-1.04045 -0.683552 1.13358 219 227 239
-1.01955 -0.70256 1.13262 228 235 247
-0.978632 -0.72127 1.133 227 230 237
-0.941746 -0.801816 1.15198 159 160 159
-1.08021 -0.663133 1.13236 221 228 239
-1.02054 -0.685781 1.13395 218 224 232
-0.981462 -0.704269 1.13315 230 235 246
-0.941623 -0.783535 1.15257 165 167 169
-0.941282 -0.763801 1.15196 173 177 182
-0.961354 -0.822662 1.17313 176 177 176
-1.06065 -0.664259 1.13358 226 233 241
-0.962806 -0.724745 1.15261 210 214 222
-1.06071 -0.664033 1.15423 221 228 235
-1.05982 -0.681462 1.15121 223 231 244
-1.02147 -0.684537 1.15369 214 221 232
-0.98032 -0.703713 1.15233 227 230 238
-0.961301 -0.783268 1.17293 189 190 193
-0.960463 -0.762037 1.17235 188 191 193
-0.960297 -0.743127 1.17266 191 194 197
-0.99884 -0.843196 1.15079 142 136 127
-0.96132 -0.723792 1.17233 205 208 213
-0.976207 -0.783001 1.19135 189 185 183
-0.998987 -0.701548 1.17202 226 233 242
-0.960442 -0.742603 1.19133 203 204 207
-0.960405 -0.723471 1.19325 204 207 211
-0.975865 -0.742228 1.19107 199 199 201
-1.06496 -1.24956 1.03956 214 224 237
-0.980045 -1.2232 1.0524 175 179 186
-0.993085 -1.20394 1.06711 203 203 211
-0.979931 -1.20379 1.05366 183 188 196
-0.958619 -1.20387 1.05207 186 192 200
-0.979731 -1.20238 1.06903 189 193 200
-0.957866 -1.20316 1.07038 205 210 220
-0.998232 -1.16502 1.07038 192 200 212
-0.980793 -0.942466 1.23178 157 164 159
-0.982109 -1.16353 1.07152 198 200 208
-0.937804 -1.18321 1.0724 207 213 223
-0.92046 -1.16677 1.09211 184 190 198
-0.926277 -1.02223 1.07821 211 215 226
-0.958832 -1.0033 1.07379 195 197 201
-0.926057 -0.963809 1.07685 210 215 224
-0.925021 -0.981317 1.07796 213 217 227
-0.943597 -0.942868 1.07331 198 200 206
-0.925023 -0.923681 1.07472 207 212 220
-0.925039 -0.942892 1.07577 208 213 221
-1.06636 -0.838051 1.07275 228 235 253
-0.91941 -0.944106 1.09279 179 184 188
-0.919207 -0.964274 1.09291 179 185 190
-1.06044 -0.802163 1.07221 184 192 208
-1.04211 -0.804496 1.07354 186 195 208
-0.959501 -0.862875 1.07231 170 172 175
-0.943407 -0.863417 1.07482 193 195 201
-0.92112 -0.863834 1.0732 193 195 200
-0.920349 -0.8832 1.09087 188 192 197
-1.03472 -0.819186 1.08849 225 232 251
-0.921954 -0.962548 1.11069 121 126 121
-1.14085 -0.722301 1.07179 198 204 207
-1.1206 -0.744326 1.07155 171 177 180
-1.07989 -0.764514 1.09028 226 235 250
-1.0616 -0.782136 1.0913 222 231 247
-1.04134 -0.803117 1.09271 189 198 215
-1.02229 -0.80271 1.09129 186 194 211
-1.02451 -0.825677 1.09371 225 233 250
-0.999277 -0.815817 1.08487 228 236 252
-0.979912 -0.817577 1.08827 223 230 244
-0.924432 -0.923089 1.11287 125 130 124
-1.03981 -0.782725 1.09249 219 228 243
-0.981179 -0.803289 1.09313 208 215 230
-0.924114 -0.842329 1.10949 136 140 136
-0.958269 -0.902298 1.11165 145 149 145
-1.03885 -0.761759 1.11185 238 246 254
-1.02016 -0.782582 1.1143 224 231 243
-0.978169 -0.8006 1.10937 211 219 234
-0.924877 -0.823271 1.11176 138 139 136
-1.10024 -0.721981 1.11003 198 206 217
-1.05931 -0.741668 1.11057 231 240 253
-1.01597 -0.782074 1.12869 215 219 227
-1.08017 -0.702105 1.12965 211 220 232
-1.03722 -0.74022 1.12959 238 247 252
-1.02085 -0.744537 1.13321 238 243 247
-0.99275 -0.863043 1.16388 162 158 155
-1.03191 -0.738665 1.143 234 239 250
-1.01929 -0.74326 1.15041 229 236 244
-0.957179 -0.782959 1.15276 168 172 176
-1.0417 -0.701117 1.15071 230 239 253
-1.07872 -0.680519 1.14879 226 234 245
-1.01701 -0.720458 1.14992 230 236 244
-0.997799 -0.763061 1.17142 210 214 221
-0.991339 -0.782042 1.16557 187 184 182
-0.978189 -0.783125 1.17124 185 182 181
-0.977116 -0.803741 1.1717 179 174 170
-1.02582 -0.725986 1.17326 233 242 254
-0.999636 -0.744921 1.16991 215 214 214
-1.03319 -0.716779 1.1689 232 239 255
-0.995752 -0.776825 1.19534 194 200 211
-1.01292 -0.737467 1.1919 225 232 246
-1.04529 -0.683729 1.19155 207 215 230
-1.03566 -0.700872 1.19335 224 232 246
-1.02902 -0.712042 1.19442 234 242 255
-1.0037 -0.759967 1.21191 214 219 230
-1.00937 -0.745951 1.21209 223 229 240
-0.979486 -0.883299 1.25424 182 181 180
-0.984891 -0.924805 1.25161 125 125 110
-1.03402 -0.699995 1.21189 202 210 224
-1.02953 -0.709606 1.2115 224 232 245
-1.00177 -0.782098 1.23363 211 216 227
-0.978273 -0.840603 1.23304 182 177 174
-0.992402 -0.820918 1.24518 213 217 224
-0.980196 -0.88429 1.27224 158 157 152
-1.01122 -0.754352 1.23734 218 223 235
-0.989791 -0.919485 1.28588 155 159 150
-1.02846 -0.709793 1.22902 216 224 238
-0.982168 -1.163 1.01129 207 217 227
-0.938255 -1.20394 1.05132 182 187 196
-0.982379 -1.14341 1.0522 192 197 205
-1.02444 -1.1401 1.05899 180 185 188
-0.998919 -1.12554 1.05389 187 191 197
-1.01363 -1.12619 1.07492 176 182 192
-1.01571 -1.12844 1.08809 189 188 191
-0.960281 -0.983987 1.07253 189 192 196
-0.94166 -0.983665 1.07359 198 201 208
-1.07508 -0.831742 1.0726 222 231 246
-0.943102 -0.923756 1.07406 203 204 210
-1.07666 -0.800188 1.08551 192 200 218
-1.01688 -0.839558 1.0956 222 228 242
-0.999349 -0.860191 1.09514 164 162 165
-0.959096 -0.883939 1.11181 147 150 148
-1.03319 -0.818235 1.10433 168 178 195
-1.01989 -0.822105 1.11143 188 190 199
-1.00333 -0.824322 1.11454 215 213 218
-0.973524 -0.866335 1.11174 167 170 173
-0.959745 -0.862685 1.11208 161 166 168
-1.05659 -0.764342 1.10679 230 241 254
-1.05575 -0.776737 1.10339 227 237 252
-1.03492 -0.801915 1.10696 208 217 234
-1.02699 -0.954164 1.15687 110 114 103
-0.983411 -0.822854 1.13248 186 188 194
-0.963405 -0.882242 1.15368 127 133 127
-1.01936 -0.720898 1.1322 233 241 251
-0.961186 -0.862417 1.17382 177 176 173
-0.960334 -0.882987 1.17235 149 153 147
-1.01883 -0.701402 1.15167 228 236 248
-0.976664 -0.904229 1.19112 130 128 114
-1.04145 -0.663116 1.13382 224 231 238
-0.998718 -0.721057 1.15184 225 232 240
-0.973691 -0.903538 1.2121 136 134 120
-1.06158 -0.621862 1.15368 201 207 213
-1.04102 -0.644392 1.15366 213 218 222
-0.939145 -0.882408 1.19284 148 155 149
-0.960974 -0.803149 1.19265 191 188 186
-1.08069 -0.606384 1.15327 194 202 211
-1.01509 -0.696694 1.16703 218 227 239
-0.940607 -0.822744 1.19233 197 201 204
-0.942495 -0.862697 1.2129 171 172 169
-0.962577 -0.763103 1.19154 197 196 197
-0.996688 -0.701141 1.19071 216 221 228
-0.961564 -0.763359 1.21236 197 196 196
-1.00185 -0.664332 1.19246 190 195 201
-0.961931 -0.744146 1.2128 200 198 198
-0.943899 -0.843834 1.23269 187 185 182
-0.920212 -0.844044 1.23246 174 174 172
-1.04026 -0.624275 1.19226 209 215 221
-0.959132 -0.722255 1.21167 198 199 201
-0.980123 -0.702815 1.21149 193 195 198
-0.918619 -0.862228 1.25269 134 138 129
-0.94319 -0.763814 1.23244 199 196 194
-0.919785 -0.843687 1.25372 152 152 145
-0.960571 -0.743968 1.23282 199 199 201
-0.96304 -0.723185 1.23251 196 195 197
-0.980782 -0.702596 1.23187 185 187 188
-0.922071 -0.863411 1.27307 120 123 112
-0.998688 -0.682297 1.23358 174 177 178
-1.00058 -0.644587 1.23274 193 199 205
-0.959143 -0.742319 1.25149 198 201 202
-0.963642 -0.702949 1.25169 193 193 193
-0.959942 -0.723045 1.25159 198 199 199
-0.915317 -0.782712 1.25142 192 190 187
-0.9192 -0.802471 1.27283 165 163 160
-0.938632 -0.882735 1.29111 115 118 106
-0.985596 -0.705578 1.25153 201 203 205
-0.917063 -0.782957 1.2732 177 176 173
-0.92148 -0.863315 1.29147 127 133 125
-0.998936 -0.664406 1.25244 196 198 200
-0.920698 -0.823604 1.29096 132 130 117
-0.919334 -0.843335 1.29354 125 127 118
-0.916148 -0.802187 1.23147 194 193 193
-1.05997 -0.943531 1.03143 129 138 119
-1.05508 -0.943162 1.04791 132 141 125
-0.928438 -0.985109 1.13321 133 142 134
-1.05441 -0.921886 1.04922 131 140 123
-1.04193 -0.924328 1.05338 132 141 126
-1.04365 -0.944713 1.05351 132 141 126
-1.03734 -0.961359 1.05287 135 144 129
-1.09886 -0.783585 1.0331 156 163 157
-1.07349 -0.863039 1.04561 130 140 125
-1.02129 -0.943008 1.0543 128 136 122
-1.01299 -1.00427 1.06762 131 137 128
-1.00089 -1.10222 1.08421 195 192 196
-1.08004 -0.78242 1.03311 139 145 139
-1.05989 -0.865486 1.04945 137 145 136
-1.01966 -0.945934 1.06445 129 136 126
-0.979495 -1.06297 1.07295 178 179 182
-1.04213 -0.884364 1.05456 130 138 127
-1.0213 -0.903584 1.0513 126 134 120
-0.976467 -1.02415 1.07088 168 170 172
-1.13921 -0.762934 1.05404 164 171 170
-1.09774 -0.764815 1.05369 154 160 159
-1.09318 -0.777271 1.05135 144 150 149
-1.06175 -0.825128 1.05591 216 223 236
-0.979204 -0.983294 1.06993 171 175 180
-0.998359 -0.899457 1.06878 146 152 151
-0.973609 -1.08613 1.1118 187 192 197
-1.04086 -0.764148 1.05081 191 195 203
-0.979996 -0.824534 1.05158 197 203 212
-0.999696 -0.964926 1.21171 128 134 125
-1.00219 -0.863643 1.06962 135 141 139
-1.10485 -0.745305 1.07674 168 175 176
-1.06083 -0.762458 1.07089 217 225 236
-1.03776 -0.740169 1.05216 181 186 191
-1.02089 -0.762725 1.07335 211 220 233
-1.00167 -0.782592 1.07447 198 207 219
-1.07987 -0.745599 1.07484 176 182 187
-0.981558 -1.04446 1.15216 140 151 142
-1.02015 -0.741873 1.09213 233 241 252
-1.00353 -0.745772 1.09412 235 243 253
-0.98137 -0.781304 1.09458 199 208 220
-0.974406 -0.98247 1.13288 130 138 129
-0.977832 -0.944439 1.13398 127 134 125
-0.9837 -1.00296 1.15216 133 142 131
-0.980154 -1.06364 1.17331 145 155 147
-0.981105 -0.763649 1.11436 226 235 246
-0.982267 -0.922929 1.15343 114 122 110
-0.979005 -1.02225 1.17195 139 150 138
-1.01854 -0.741685 1.1122 240 245 250
-1.00057 -0.743484 1.11369 241 245 250
-0.984166 -0.98435 1.17272 134 144 131
-0.984175 -1.00215 1.17059 136 146 133
-0.986184 -1.06921 1.19299 141 146 131
-0.992627 -1.06197 1.19162 150 159 145
-1.10074 -0.700879 1.13003 206 216 228
-0.983346 -1.00266 1.19213 129 139 127
-1.00238 -0.724166 1.13395 233 238 245
-0.982069 -0.744141 1.13405 224 228 235
-0.978626 -0.760619 1.13142 217 222 232
-0.91872 -0.802926 1.29303 154 152 144
-0.979092 -0.922584 1.1927 119 122 107
-0.982681 -1.01935 1.213 139 150 140
-0.959532 -0.76255 1.15259 175 179 184
-0.961527 -0.903869 1.17238 127 134 126
-0.979583 -0.742042 1.15247 206 209 214
-0.962956 -0.903509 1.19308 123 127 116
-0.978085 -0.925012 1.21199 117 119 103
-0.978455 -0.943692 1.21167 130 136 127
-0.991285 -1.00393 1.23966 125 137 127
-0.982028 -0.98337 1.25045 116 123 112
-0.981891 -0.943866 1.25111 129 137 126
-0.954417 -0.926795 1.25111 119 128 116
-0.945025 -0.906598 1.25032 136 144 137
-1.01921 -0.660387 1.21089 193 199 206
-0.959902 -0.783401 1.23222 198 195 192
-0.994403 -0.699818 1.23356 184 188 192
-0.955722 -0.763975 1.25293 201 203 204
-0.938665 -0.844087 1.29238 150 152 144
-0.940239 -0.823146 1.2928 174 176 171
-0.98432 -0.704669 1.2745 198 201 203
-0.943718 -0.784176 1.29243 189 190 186
-0.977649 -0.68306 1.27276 210 211 208
-0.963612 -0.724978 1.29375 188 189 186
-0.941959 -0.782915 1.31037 174 175 167
-0.998442 -0.689383 1.04582 150 155 153
-0.963657 -1.02403 1.15454 148 159 149
-1.0193 -1.16566 1.00923 200 206 212
-0.979917 -1.18452 1.03237 206 215 223
-0.982699 -1.16328 1.05399 186 191 198
-0.938891 -1.14255 1.09063 205 211 220
-0.937898 -1.1617 1.10926 178 182 184
-0.941899 -1.04262 1.09061 197 201 208
-0.945109 -1.1045 1.10581 188 194 201
-0.946467 -1.04433 1.10527 184 190 196
-1.04145 -0.783433 1.0732 202 211 223
-0.999059 -0.783547 1.09294 210 218 230
-1.10007 -0.741033 1.10697 191 199 209
-0.978271 -0.781886 1.11217 201 208 221
-0.963745 -0.944745 1.15378 129 138 125
-0.96446 -1.0595 1.17406 164 176 172
-0.960208 -0.982746 1.17075 137 147 135
-0.961187 -1.06385 1.19294 150 161 153
-0.957268 -0.962342 1.17315 129 138 126
-1.00005 -0.724096 1.11498 233 239 248
-0.958766 -0.942997 1.17309 120 128 114
-0.943893 -0.98389 1.17397 136 146 135
-0.960215 -1.02428 1.19134 142 153 142
-0.945736 -0.943289 1.17362 131 142 130
-0.940346 -0.98329 1.19267 146 158 147
-0.943127 -1.00467 1.19257 143 154 144
-0.943116 -1.02365 1.19426 139 150 139
-0.957004 -1.04307 1.2135 134 143 132
-0.942595 -0.843374 1.15596 158 161 160
-0.941149 -1.02428 1.21097 149 161 150
-0.94081 -0.822738 1.17218 179 183 184
-0.942532 -0.923938 1.19371 117 126 115
-0.936515 -1.00371 1.20966 144 156 143
-0.962051 -0.782116 1.03827 218 222 233
-0.941199 -0.96186 1.2107 127 138 126
-0.938572 -0.980921 1.21101 135 146 135
-0.958943 -1.04271 1.23315 139 147 135
-0.940822 -0.94267 1.21135 115 124 113
-0.941957 -0.921917 1.21259 113 122 110
-0.962906 -1.05908 1.24625 149 157 146
-0.922556 -0.861522 1.19335 174 180 179
-0.940984 -0.90461 1.21298 132 139 132
-0.943081 -0.763567 1.17346 192 194 195
-0.922057 -0.883607 1.2114 139 147 141
-0.919513 -0.904116 1.2132 119 128 117
-0.919901 -0.923245 1.21314 124 133 123
-0.938705 -0.782699 1.19256 200 203 207
-0.915577 -0.943015 1.22955 133 142 131
-0.961484 -0.704479 1.19337 200 202 205
-0.921964 -0.782892 1.21278 201 203 207
-0.937605 -0.761837 1.20981 200 202 203
-0.938817 -0.743085 1.21176 199 201 203
-0.901515 -0.841499 1.23264 176 181 181
-0.923102 -0.902034 1.25102 124 132 120
-0.923127 -0.78437 1.09412 215 219 230
-0.959743 -0.702578 1.2114 199 202 206
-0.90213 -0.861333 1.23338 143 150 143
-0.927827 -0.919709 1.27275 123 132 119
-0.919062 -0.942232 1.27276 135 144 131
-0.98056 -0.662528 1.21263 186 190 194
-0.944721 -0.94298 1.27406 118 126 114
-0.939645 -0.72259 1.23214 195 197 198
-0.937215 -0.74062 1.23091 199 199 199
-0.920486 -0.884882 1.2719 115 120 108
-0.937876 -0.959803 1.29347 133 141 127
-0.959124 -0.682765 1.23164 197 201 205
-0.940757 -0.703524 1.23241 194 197 199
-0.923083 -0.744011 1.23315 200 202 205
-0.900439 -0.802839 1.2522 189 192 193
-0.92326 -0.923272 1.29213 127 134 122
-0.981183 -0.661951 1.23208 195 199 204
-0.940301 -0.943402 1.31261 129 136 123
-0.980845 -0.643779 1.2322 196 201 205
-0.917577 -0.762347 1.25154 198 199 199
-0.899224 -0.823201 1.27231 153 156 153
-0.919668 -0.883305 1.29209 115 122 111
-0.960066 -0.663659 1.2322 185 188 192
-0.936337 -0.72249 1.2518 198 199 199
-0.94079 -0.921741 1.31238 120 128 115
-0.939522 -0.702829 1.25167 190 192 193
-0.897779 -0.783209 1.27184 187 190 190
-0.938722 -0.902142 1.31221 117 125 112
-0.960291 -0.664099 1.2525 196 200 203
-0.900895 -0.842343 1.29205 129 136 127
-1.00042 -0.622878 1.25307 196 201 203
-0.981865 -0.644886 1.25299 209 214 219
-0.921296 -0.723542 1.2525 196 199 200
-0.918449 -0.74237 1.27245 195 196 195
-0.936652 -0.702391 1.27284 201 203 202
-0.918549 -0.78356 1.29331 171 169 162
-0.920496 -0.843546 1.31373 143 148 143
-0.920688 -0.742681 1.29296 194 195 192
-0.920089 -0.723253 1.29274 198 202 202
-0.917286 -0.804047 1.31204 166 171 167
-0.935956 -0.700959 1.29394 201 204 203
-0.980197 -0.644027 1.29379 192 198 198
-0.91903 -0.74211 1.3125 196 201 201
-1.06542 -0.802412 1.03452 133 139 135
-0.942261 -0.66515 1.29189 193 197 196
-0.922624 -0.723773 1.311 201 207 209
-0.919366 -0.762581 1.32969 181 188 184
-0.961466 -0.663923 1.31124 206 211 211
-1.0145 -1.16322 0.999118 195 201 207
-1.01534 -1.1472 1.01327 186 192 194
-1.05771 -0.9823 1.01577 148 157 139
-1.04436 -0.984369 1.01765 147 157 139
-1.04099 -1.00341 1.01621 146 156 138
-0.959037 -1.22459 1.05367 178 186 193
-1.02264 -0.983184 1.03328 145 156 138
-1.04206 -0.943511 1.03353 130 139 122
-0.998435 -1.10384 1.05466 167 169 171
-1.08259 -0.841414 1.0136 140 150 131
-1.0031 -0.982611 1.03459 147 157 142
-1.01956 -1.02537 1.05075 139 148 135
-1.03893 -0.903631 1.03392 124 132 114
-1.00392 -0.943264 1.03445 142 152 137
-1.00095 -1.00285 1.05142 135 143 130
-0.980719 -1.06314 1.05675 158 158 157
-0.979105 -1.08554 1.05485 172 169 168
-1.04115 -0.863464 1.0344 124 132 115
-1.01786 -0.904015 1.03129 127 136 118
-0.979838 -1.00247 1.05662 140 147 140
-0.958967 -1.04321 1.0568 159 158 158
-1.06455 -0.823222 1.03525 121 127 123
-0.999918 -0.922724 1.05213 129 137 125
-0.980616 -0.943661 1.05324 129 138 127
-0.962143 -0.983137 1.05551 143 147 140
-1.02086 -0.884383 1.0509 125 132 120
-1.00125 -0.903626 1.05553 129 136 126
-0.961495 -0.920875 1.05843 150 155 152
-0.980098 -0.904153 1.05911 144 150 146
-1.12461 -0.786134 1.06098 139 145 145
-0.922792 -0.843686 1.07492 183 185 191
-0.924106 -0.823782 1.07584 176 178 182
-0.932839 -0.96303 1.13314 138 147 137
-0.933319 -1.00097 1.13375 138 150 148
-0.934342 -0.942683 1.1335 134 142 131
-0.939133 -0.903659 1.13368 120 127 117
-0.927942 -0.966118 1.13126 135 142 133
-0.935534 -1.0194 1.15659 141 150 145
-0.928293 -0.963425 1.15074 146 158 146
-0.944027 -0.922817 1.15138 123 130 119
-0.930749 -0.931849 1.14729 143 152 141
-0.928432 -1.00726 1.17084 159 170 164
-0.938762 -1.02351 1.17565 150 159 152
-0.939377 -0.882961 1.15053 121 128 117
-0.943105 -0.901814 1.15142 117 123 110
-0.929582 -1.0189 1.17369 156 167 160
-0.918211 -0.84108 1.13406 112 110 94
-0.942402 -0.861239 1.15437 148 152 149
-0.928587 -0.902378 1.15752 127 137 125
-0.927672 -0.880984 1.15691 116 123 111
-0.92574 -1.00155 1.1938 137 147 136
-0.92361 -0.882218 1.17366 113 120 107
-0.92075 -0.916502 1.17791 129 141 129
-0.921623 -0.943898 1.19426 134 147 134
-0.924095 -0.963423 1.19795 137 148 136
-0.919877 -0.823207 1.17239 181 182 182
-0.921523 -0.983109 1.21296 143 153 141
-0.920162 -0.803084 1.17298 181 183 183
-0.903606 -0.823489 1.17469 186 186 187
-0.90463 -0.842078 1.17405 138 140 130
-0.924241 -1.02279 1.23511 165 177 167
-0.907174 -0.860319 1.19442 126 131 119
-0.900752 -0.823094 1.19279 185 187 188
-0.904669 -0.862075 1.21349 131 137 127
-0.909583 -0.921186 1.21928 137 146 136
-0.907636 -0.943166 1.23345 132 140 128
-0.902524 -0.842827 1.21369 166 170 168
-0.916825 -0.984003 1.25265 153 162 150
-0.900643 -0.823698 1.21306 184 187 189
-0.900834 -0.883148 1.23213 129 138 127
-0.90521 -0.960236 1.23326 133 142 129
-0.913112 -0.964401 1.25211 148 156 144
-0.90515 -0.942555 1.25232 135 144 131
-0.899849 -0.78321 1.21285 196 199 202
-0.903477 -0.902676 1.25311 122 131 118
-0.913359 -0.961459 1.27298 141 149 134
-0.901989 -0.883311 1.25468 121 128 117
-0.920219 -0.743023 1.21356 201 204 208
-0.884827 -0.821135 1.23626 174 180 180
-0.901559 -0.861567 1.25188 139 145 138
-0.904346 -0.923074 1.27142 132 140 127
-0.883856 -0.803868 1.23296 197 202 206
-0.913406 -0.947366 1.29068 139 147 132
-0.886101 -0.802596 1.25283 192 197 200
-0.899363 -0.861696 1.27272 119 126 116
-1.00002 -0.562564 1.17194 193 191 186
-0.900777 -0.881983 1.29258 129 135 124
-0.917928 -0.944479 1.31249 148 158 143
-0.887211 -0.820516 1.27151 131 138 132
-0.899782 -0.861414 1.29235 125 132 121
-1.00018 -0.643688 1.25218 203 208 213
-0.885775 -0.802464 1.27224 163 170 169
-0.95826 -0.682408 1.27082 192 195 196
-0.978143 -0.658418 1.27214 182 187 185
-0.903535 -0.744287 1.2921 192 197 198
-0.900944 -0.763514 1.29252 187 192 191
-0.900543 -0.822067 1.3098 143 152 143
-0.919523 -0.861367 1.33074 142 152 138
-0.901724 -0.801825 1.3103 159 165 161
-0.979519 -0.660286 1.29341 173 179 178
-0.922775 -0.722416 1.33161 186 196 194
-0.942995 -0.683742 1.32816 204 214 216
-1.00149 -1.18306 1.03456 198 206 213
-1.03792 -1.17125 1.03263 211 219 226
-1.02077 -1.17786 1.0511 201 209 217
-1.01871 -1.16125 1.06791 183 192 199
-0.99846 -1.14112 1.07353 189 191 195
-0.984029 -1.00599 1.06736 151 158 156
-1.11797 -0.739885 1.10431 197 205 213
-1.09965 -0.75408 1.10292 200 208 217
-0.94698 -1.06284 1.21365 171 183 177
-0.922244 -0.782897 1.15454 170 170 169
-0.944848 -1.04371 1.2101 149 160 148
-0.920033 -0.763374 1.17266 190 192 193
-0.92013 -0.743586 1.17348 195 196 197
-0.887628 -0.81977 1.19896 200 206 213
-0.883499 -0.80339 1.21348 197 202 208
-0.901414 -0.763154 1.21281 199 201 205
-0.889512 -0.841308 1.22016 128 137 128
-0.944084 -0.703992 1.21394 193 193 195
-0.905163 -0.744484 1.21377 198 200 204
-0.920346 -0.722739 1.23282 198 200 202
-0.900683 -0.743253 1.233 200 204 208
-0.920115 -0.703106 1.2332 194 197 199
-0.905155 -0.724499 1.23328 194 198 202
-0.90443 -0.923526 1.29377 138 147 132
-0.883744 -0.763351 1.25367 198 203 208
-0.884744 -0.783348 1.25367 198 203 207
-0.909097 -0.93911 1.30926 157 166 152
-0.920194 -0.703345 1.25258 197 200 202
-0.870172 -0.79913 1.26328 140 148 140
-0.907571 -0.92246 1.31313 155 166 150
-0.921756 -0.684306 1.25272 194 197 198
-0.921596 -0.683613 1.27219 198 203 204
-0.901834 -0.723282 1.272 194 198 201
-0.941287 -0.663626 1.27285 190 193 192
-0.888114 -0.724475 1.27598 209 214 218
-0.880883 -0.76197 1.29221 180 187 188
-0.882658 -0.743361 1.29239 191 198 198
-0.906227 -0.846133 1.32758 149 162 145
-0.90365 -0.704402 1.29179 195 202 205
-0.902817 -0.723696 1.29137 198 203 206
-0.886166 -0.724687 1.29227 195 201 205
-0.884191 -0.762426 1.30978 145 155 143
-0.901626 -0.81954 1.32444 145 157 138
-0.885033 -0.741874 1.31021 167 175 168
-0.963459 -0.647243 1.3087 215 221 219
-0.903732 -0.724079 1.32715 157 168 157
-0.920005 -0.703671 1.32827 187 197 197
-0.906815 -0.705638 1.32502 170 182 176
-1.03979 -0.823373 1.01594 128 136 119
-0.941045 -1.20373 0.997832 211 219 228
-1.01311 -1.12196 1.05247 173 176 179
-0.9234 -1.22286 1.07182 188 194 204
-1.1037 -0.764207 1.01809 187 194 187
-1.08558 -0.78414 1.01949 144 153 141
-1.04009 -1.09534 1.05247 169 173 169
-1.12056 -0.74077 1.02957 193 202 197
-1.10217 -0.744364 1.0309 180 187 183
-1.01601 -1.10015 1.06838 146 149 151
-1.10081 -0.72228 1.03469 180 188 185
-1.13726 -0.725355 1.03666 203 212 213
-1.00041 -0.801903 1.03167 158 164 163
-1.10022 -0.723606 1.05519 170 177 179
-1.06227 -0.742731 1.05325 169 174 175
-0.921024 -1.14392 1.09082 194 199 206
-0.999374 -0.84448 1.05215 158 164 165
-0.962332 -0.822743 1.05694 186 191 199
-1.12081 -0.702376 1.07284 190 197 201
-1.08017 -0.724218 1.07206 170 176 178
-1.04163 -0.723705 1.05401 157 163 163
-1.06033 -0.725274 1.07596 180 186 189
-0.999692 -1.02318 1.13671 131 142 133
-0.996519 -0.983892 1.13301 127 134 125
-0.997725 -0.944488 1.13458 127 134 126
-0.996805 -1.02145 1.15257 136 145 134
-0.999331 -0.924937 1.13561 119 126 118
-0.997139 -1.00254 1.15208 134 144 132
-0.978971 -0.881445 1.1343 116 122 118
-0.978366 -0.863054 1.13506 130 134 132
-0.978033 -0.845184 1.13668 142 144 142
-0.956469 -1.00226 1.1919 137 146 136
-0.945282 -1.04745 1.23753 156 167 156
-0.960081 -0.682089 1.19261 187 189 191
-0.910471 -0.902691 1.32527 153 163 146
-1.12331 -0.684313 1.07312 193 200 203
-0.980267 -0.624495 1.15333 186 185 185
-1.02 -0.993925 1.01346 147 160 140
-1.03645 -0.903044 1.00822 136 145 126
-1.03495 -0.915236 1.00977 134 145 126
-1.02204 -0.922271 1.01524 137 146 128
-1.02124 -1.02079 1.03176 142 153 144
-1.05947 -0.823033 1.0124 131 139 122
-1.04261 -0.841432 1.01734 126 133 115
-1.02186 -0.882695 1.01336 132 141 121
-1.01907 -0.901953 1.01223 133 142 122
-1.07784 -0.800487 1.01904 129 136 129
-1.05925 -0.804425 1.01388 125 132 123
-1.03837 -0.803241 1.0149 123 131 120
-1.03318 -0.86183 1.01162 133 142 123
-1.02217 -0.864125 1.01477 129 137 118
-1.07933 -0.724452 1.01397 213 220 217
-1.06004 -0.722969 1.01363 202 209 205
-1.02427 -0.842825 1.03242 131 139 125
-1.07874 -0.70599 1.01599 208 217 214
-1.0417 -0.723776 1.01348 164 171 164
-1.01979 -0.742766 1.01488 136 143 133
-1.01774 -0.762308 1.02888 131 137 133
-0.980948 -1.02213 1.0574 145 149 144
-1 -0.842405 1.0332 121 128 115
-0.9986 -0.86236 1.05407 134 141 136
-0.954146 -1.18572 1.09344 207 213 220
-1.11954 -0.705178 1.03971 175 182 182
-0.980899 -0.800927 1.03689 194 199 205
-1.00045 -0.824102 1.05301 207 212 221
-1.14166 -0.703669 1.05275 161 169 176
-0.982722 -0.725055 1.03778 178 184 189
-0.94881 -0.783763 1.03943 210 215 225
-0.979491 -0.882545 1.05601 134 139 133
-1.0815 -0.70105 1.05086 159 165 168
-0.949386 -0.749161 1.0558 189 196 210
-1.05796 -0.700723 1.06991 171 176 179
-1.03973 -0.701338 1.07181 171 176 179
-1.06075 -0.683352 1.07217 179 184 189
-0.975679 -0.986096 1.11408 143 150 144
-1.06063 -0.683437 1.09288 188 196 204
-1.0034 -0.902573 1.13733 120 122 113
-0.999445 -0.964434 1.15124 120 126 115
-0.955054 -0.823808 1.11143 210 214 222
-1.00085 -0.882777 1.13796 127 125 117
-1.00111 -0.921441 1.15175 108 110 97
-1.00201 -0.940915 1.15076 110 115 106
-0.987277 -1.06559 1.21098 135 139 123
-0.960692 -0.923942 1.19226 118 125 114
-0.964477 -0.964119 1.23387 115 120 105
-0.959481 -1.02183 1.25254 130 138 125
-0.962561 -0.983485 1.25322 123 128 113
-0.946123 -0.919877 1.25549 121 129 119
-0.981288 -0.643745 1.2123 190 193 197
-0.980705 -0.623967 1.23235 199 202 205
-0.922218 -0.684647 1.23356 185 188 190
-0.980637 -0.623643 1.25273 200 206 209
-0.943824 -0.64477 1.25365 195 197 194
-0.90747 -0.686212 1.25479 190 194 197
-0.963453 -0.624895 1.27136 194 195 189
-0.943759 -0.646517 1.27144 187 191 188
-0.923272 -0.665584 1.2715 196 201 201
-0.905883 -0.685424 1.27232 205 211 214
-0.927975 -0.64749 1.26934 173 176 169
-0.928484 -0.65305 1.28713 194 198 197
-0.923663 -0.664952 1.29135 191 197 198
-0.8876 -0.705293 1.29264 199 205 210
-0.907638 -0.671257 1.29032 213 219 224
-0.943917 -0.650032 1.30478 226 232 238
-0.890272 -0.764907 1.32392 137 151 127
-1.003 -0.964116 1.17214 109 115 104
-0.992167 -1.0037 1.18997 128 138 125
-0.996303 -1.0248 1.19468 133 141 127
-0.961837 -0.943626 1.23199 116 120 103
-0.959275 -0.920968 1.23048 133 139 128
-0.959541 -0.948752 1.29103 111 116 100
-0.942686 -0.902263 1.29183 114 119 107
-0.965794 -0.6265 1.28999 216 217 209
-1.05424 -0.993711 1.01594 150 159 140
-1.02551 -1.01948 1.01541 156 166 160
-1.07519 -0.917846 1.0251 129 138 119
-1.03958 -0.98211 1.03022 143 152 134
-1.02172 -1.03573 1.04112 167 176 165
-1.00032 -1.06267 1.05559 155 158 152
-0.943297 -1.08331 1.0526 180 181 185
-0.941919 -1.10164 1.05247 189 191 196
-0.922687 -1.1218 1.05952 201 209 219
-1.09873 -0.740933 1.0474 160 167 165
-0.944561 -1.04495 1.05905 184 182 182
-0.942421 -1.06261 1.0554 184 183 184
-0.961955 -0.903441 1.05668 140 144 140
-0.942425 -0.86319 1.05859 157 160 162
-0.937951 -0.882946 1.0561 159 162 160
-1.08364 -0.704665 1.07395 177 185 188
-1.09996 -0.662677 1.09268 201 210 217
-1.03614 -0.948243 1.1466 103 103 87
-1.08167 -0.645758 1.11462 191 202 217
-1.01963 -0.66127 1.1323 221 226 231
-1.04005 -0.642494 1.13274 225 229 234
-0.961562 -0.703386 1.15275 223 229 239
-1.04434 -1.22947 0.980555 179 180 182
-1.03452 -1.00388 1.02997 142 152 133
-1.03314 -1.13357 1.06099 130 131 124
-0.938587 -0.983857 1.15371 134 142 131
-0.92033 -0.702638 1.21311 190 192 195
-0.984448 -0.66343 1.11444 211 215 225
-0.981408 -1.16534 0.979087 201 205 213
-0.979666 -1.1272 0.999191 194 199 203
-1.06446 -0.884285 1.0167 128 137 118
-1.05532 -0.762818 1.00896 148 156 142
-1.06493 -0.981903 1.03039 136 145 126
-1.05976 -1.0034 1.0351 140 149 131
-0.995785 -1.10295 1.0393 193 197 196
-1.03797 -0.821788 1.02566 118 126 113
-1.05288 -1.01667 1.04521 155 165 148
-1.10158 -0.682869 1.05235 150 157 167
-1.12013 -0.663985 1.05537 170 177 184
-1.12034 -0.661649 1.07177 201 208 213
-0.965338 -0.863719 1.05578 123 126 121
-1.08101 -0.663716 1.09251 201 210 218
-1.02164 -0.604802 1.21264 193 197 198
-1.00018 -0.603589 1.21227 191 191 189
-0.954357 -0.922992 1.26965 128 133 122
-1.00236 -0.606193 1.23277 196 200 199
-0.956623 -0.90782 1.30924 123 129 120
-1.03945 -0.826252 0.991592 140 148 128
-1.05926 -0.763838 0.996711 162 170 152
-1.05604 -0.783245 0.99385 149 160 139
-1.04195 -0.784645 0.996181 157 167 147
-1.01762 -0.90444 0.996386 141 150 130
-1.04506 -0.766867 0.99982 162 174 154
-1.05883 -0.723491 1.00093 174 183 173
-0.957463 -1.10089 1.00938 200 207 213
-0.9596 -1.10228 1.03281 203 210 218
-0.980073 -0.782942 1.03573 199 203 210
-1.0142 -0.984239 1.06564 123 128 119
-1.1004 -0.624063 1.09222 212 218 224
-1.10153 -0.622652 1.11196 208 217 223
-1.08043 -0.623402 1.11286 206 213 222
-1.07853 -0.619161 1.13045 191 201 216
-1.02268 -0.645242 1.13537 228 232 236
-0.981573 -0.684016 1.13344 220 225 235
-1.08183 -0.607811 1.13432 191 199 212
-1.01894 -0.641992 1.15172 203 206 209
-1.06102 -0.607304 1.15408 183 190 197
-1.00106 -0.643392 1.17219 185 187 190
-0.982653 -0.643858 1.19307 193 195 198
-0.9071 -0.943043 1.08743 187 188 195
-1.02303 -0.802805 0.996505 142 150 130
-1.01769 -0.801403 1.00922 126 133 117
-1.09396 -0.707739 1.01443 197 210 195
-0.961593 -1.06606 1.03459 173 174 176
-1.00123 -0.823562 1.01323 123 129 113
-1.00759 -0.74752 1.02094 130 137 131
-0.927321 -1.08655 1.06102 200 206 215
-0.976921 -0.882684 1.11556 168 170 172
-1.02182 -0.92093 1.13509 99 98 84
